ply
format ascii 1.0
comment Created by Open3D
element vertex 372
property float x
property float y
property float z
property float nx
property float ny
property float nz
property uchar red
property uchar green
property uchar blue
end_header
-0.09707988798618317 0.2367330938577652 0.17747405171394348 0.6931725144386292 0.34054648876190186 -0.6352478861808777 68 33 19
-0.09546307474374771 0.2019844353199005 0.1701076626777649 0.650786817073822 0.004418069496750832 -0.7592476606369019 68 33 19
0.11508092284202576 0.14323662221431732 0.35246342420578003 0.6708400249481201 0.18599416315555573 -0.7178995609283447 68 33 19
0.13887140154838562 0.10630760341882706 0.3664245307445526 0.6940644979476929 0.022719841450452805 -0.7195541858673096 68 33 19
0.003309189807623625 0.1580754816532135 0.2542645037174225 0.6430896520614624 0.012029261328279972 -0.7656965851783752 68 33 19
-0.08221151679754257 0.17196208238601685 0.31508511304855347 -0.6528275609016418 -0.12591144442558289 0.7469688653945923 68 33 19
-0.09496894478797913 0.16412456333637238 0.2996636629104614 -0.6824193596839905 -0.3167947232723236 0.6587449908256531 68 33 19
-0.006913091521710157 0.14543743431568146 0.3778429329395294 -0.6536242365837097 -0.048163220286369324 0.7552852034568787 68 33 19
-0.23481766879558563 0.20923122763633728 0.1528572291135788 -0.7625200152397156 0.1852557361125946 -0.6198737621307373 68 33 19
-0.22305361926555634 0.24261678755283356 0.1628023236989975 -0.7219223976135254 0.43786507844924927 -0.5358193516731262 68 33 19
-0.19227997958660126 0.2395332008600235 0.12310473620891571 -0.6902450323104858 0.3567552864551544 -0.629513680934906 68 33 19
-0.22305361926555634 0.24261678755283356 0.1628023236989975 -0.7219223976135254 0.43786507844924927 -0.5358193516731262 68 33 19
-0.1755543202161789 0.2731795907020569 0.1250583678483963 -0.5973547697067261 0.5458859205245972 -0.5875166058540344 68 33 19
-0.19227997958660126 0.2395332008600235 0.12310473620891571 -0.6902450323104858 0.3567552864551544 -0.629513680934906 68 33 19
-0.013897130265831947 0.20436733961105347 0.2575520873069763 0.2631770074367523 0.9523605704307556 0.1541014015674591 68 33 19
0.03162071853876114 0.16553689539432526 0.34978771209716797 0.01924579218029976 0.9328262805938721 0.3598121702671051 68 33 19
0.06368503719568253 0.1749664694070816 0.32147976756095886 0.2562052011489868 0.9615325927734375 0.09906570613384247 68 33 19
0.03162071853876114 0.16553689539432526 0.34978771209716797 0.01924579218029976 0.9328262805938721 0.3598121702671051 68 33 19
0.12068042904138565 0.1432259976863861 0.406489759683609 0.08673813939094543 0.9248878955841064 0.3702145516872406 68 33 19
0.06368503719568253 0.1749664694070816 0.32147976756095886 0.2562052011489868 0.9615325927734375 0.09906570613384247 68 33 19
-0.15035445988178253 0.17845883965492249 0.20428551733493805 -0.032939087599515915 -0.9167172908782959 -0.39817652106285095 68 33 19
-0.060660578310489655 0.17507870495319366 0.20517385005950928 0.1818762719631195 -0.7681899070739746 -0.6138446927070618 68 33 19
-0.013752682134509087 0.15256871283054352 0.24895137548446655 0.05034397169947624 -0.8733084201812744 -0.4845595061779022 68 33 19
-0.15035445988178253 0.17845883965492249 0.20428551733493805 -0.032939087599515915 -0.9167172908782959 -0.39817652106285095 68 33 19
-0.15811362862586975 0.20617365837097168 0.14658093452453613 0.002899936167523265 -0.8831877708435059 -0.46901053190231323 68 33 19
-0.060660578310489655 0.17507870495319366 0.20517385005950928 0.1818762719631195 -0.7681899070739746 -0.6138446927070618 68 33 19
0.3924596905708313 -0.23631158471107483 -0.11664951592683792 0.7336491942405701 -0.36831849813461304 0.571051836013794 68 33 19
0.3309919834136963 -0.1744578629732132 -0.011107864789664745 0.8674185872077942 0.05364932119846344 0.4946783781051636 68 33 19
0.27973610162734985 -0.20563028752803802 0.03479332849383354 0.6443426609039307 -0.4679744839668274 0.6048324704170227 68 33 19
0.06852882355451584 0.09824545681476593 0.49501776695251465 0.16347388923168182 0.8711096048355103 0.46308133006095886 68 33 19
0.02371804788708687 0.11947974562644958 0.45279252529144287 -0.0022265459410846233 0.9515182375907898 0.30758437514305115 68 33 19
0.026559852063655853 0.08018505573272705 0.5338729619979858 0.03669314831495285 0.7973772883415222 0.6023645997047424 68 33 19
0.17257679998874664 -0.10487109422683716 0.0850260779261589 -0.7526361346244812 0.32631802558898926 -0.5718874931335449 68 33 19
0.1323680430650711 -0.052233416587114334 0.1700548231601715 -0.8221390247344971 0.2302400916814804 -0.5206505060195923 68 33 19
0.18990619480609894 -0.10182802379131317 0.06329023092985153 -0.7506561875343323 0.31794965267181396 -0.5791574120521545 68 33 19
0.30613723397254944 -0.15754887461662292 -0.03552485629916191 0.4611318111419678 0.8782210350036621 -0.1268274486064911 68 33 19
0.41442248225212097 -0.22929701209068298 -0.15380652248859406 0.7915025353431702 0.5523635149002075 -0.26156890392303467 68 33 19
0.38231828808784485 -0.215384379029274 -0.183627650141716 0.675796627998352 0.4638158082962036 -0.5728645324707031 68 33 19
0.20931294560432434 -0.14137856662273407 0.16112545132637024 0.6481868028640747 -0.4807868003845215 0.5905064940452576 68 33 19
0.16923990845680237 -0.022058382630348206 0.293437659740448 0.8007761836051941 -0.27530723810195923 0.5319430828094482 68 33 19
0.1315072476863861 -0.05734723061323166 0.31692031025886536 0.41925713419914246 -0.6909646987915039 0.5888898968696594 68 33 19
0.18990619480609894 -0.10182802379131317 0.06329023092985153 -0.7506561875343323 0.31794965267181396 -0.5791574120521545 68 33 19
0.26384982466697693 -0.15066714584827423 -0.0557766929268837 -0.648485541343689 0.4525434970855713 -0.6121036410331726 68 33 19
0.17257679998874664 -0.10487109422683716 0.0850260779261589 -0.7526361346244812 0.32631802558898926 -0.5718874931335449 68 33 19
0.26384982466697693 -0.15066714584827423 -0.0557766929268837 -0.648485541343689 0.4525434970855713 -0.6121036410331726 68 33 19
0.2656571865081787 -0.21686173975467682 -0.09205915033817291 -0.8357208371162415 0.009669922292232513 -0.5490694046020508 68 33 19
0.2145308405160904 -0.18145358562469482 -0.011504793539643288 -0.8751903772354126 -0.09323922544717789 -0.474708616733551 68 33 19
0.22909128665924072 -0.09303604066371918 0.09376862645149231 0.43804386258125305 0.8734263181686401 -0.2127065360546112 68 33 19
0.1408521682024002 -0.0050001428462564945 0.2520069479942322 0.43927210569381714 0.8591219186782837 -0.2625824511051178 68 33 19
0.17381753027439117 -0.01666107214987278 0.2793314456939697 0.7409948110580444 0.6714456677436829 -0.009350604377686977 68 33 19
0.11442980915307999 0.00866488367319107 0.2582300901412964 0.37902864813804626 0.8664103150367737 -0.3250698149204254 68 33 19
0.1408521682024002 -0.0050001428462564945 0.2520069479942322 0.43927210569381714 0.8591219186782837 -0.2625824511051178 68 33 19
0.15829406678676605 -0.042348284274339676 0.1653798520565033 0.27845799922943115 0.8990091681480408 -0.3379996120929718 68 33 19
0.37504473328590393 -0.21838507056236267 -0.18263472616672516 -0.015414423309266567 -0.8891131281852722 -0.4574277698993683 68 33 19
0.4106121361255646 -0.23355859518051147 -0.15154115855693817 0.14528989791870117 -0.9229435324668884 -0.35646331310272217 68 33 19
0.3377314507961273 -0.2544081509113312 -0.09462811052799225 -0.08464489877223969 -0.937207818031311 -0.3383443057537079 68 33 19
0.08438337594270706 -0.11834834516048431 -0.19436430931091309 0.7045823931694031 -0.3433589041233063 0.6210220456123352 68 33 19
0.019487733021378517 -0.011578897945582867 -0.06981693208217621 0.7825637459754944 -0.1643195003271103 0.6004939675331116 68 33 19
-0.02796664461493492 -0.04262251406908035 -0.030596597120165825 0.4259813725948334 -0.6280209422111511 0.651252269744873 68 33 19
0.10890302062034607 -0.010420133359730244 0.229059100151062 -0.6630713939666748 0.483011394739151 -0.5718708038330078 68 33 19
0.1323680430650711 -0.052233416587114334 0.1700548231601715 -0.8221390247344971 0.2302400916814804 -0.5206505060195923 68 33 19
0.10149399191141129 -0.02010684460401535 0.23393303155899048 -0.7623329758644104 0.34402379393577576 -0.5481752157211304 68 33 19
-0.21247498691082 0.22040621936321259 0.25644615292549133 0.1140015497803688 0.9117276668548584 0.39465978741645813 68 33 19
-0.2526616156101227 0.23674756288528442 0.22408126294612885 -0.06454171240329742 0.9519445896148682 0.2993922531604767 68 33 19
-0.28382444381713867 0.21293751895427704 0.2745828628540039 -0.09429007023572922 0.8483003377914429 0.5210525989532471 68 33 19
-0.0889938548207283 -0.02039100043475628 -0.0712086632847786 -0.7071636319160461 -0.7069966197013855 -0.008687126450240612 68 33 19
-0.011064250022172928 -0.08865517377853394 -0.19339388608932495 -0.6799831390380859 -0.7310091853141785 -0.05699698254466057 68 33 19
0.037226345390081406 -0.10991810262203217 -0.15237876772880554 -0.3854557275772095 -0.8971195220947266 0.21587176620960236 68 33 19
0.019487733021378517 -0.011578897945582867 -0.06981693208217621 0.7825637459754944 -0.1643195003271103 0.6004939675331116 68 33 19
-0.06656729429960251 0.07786113768815994 0.0646112933754921 0.8638114333152771 0.10990836471319199 0.49168074131011963 68 33 19
-0.12211592495441437 0.06287344545125961 0.12201666831970215 0.6426097750663757 -0.3740537762641907 0.6686826348304749 68 33 19
-0.03896879032254219 0.0010456002783030272 -0.1265936642885208 -0.6461095809936523 0.42117786407470703 -0.636515200138092 68 33 19
0.04843923822045326 -0.07562600821256638 -0.2681390345096588 -0.7094479203224182 0.33659568428993225 -0.6191824674606323 68 33 19
-0.05959980562329292 -0.0028415839187800884 -0.10764247179031372 -0.6630118489265442 0.3782045841217041 -0.6460468769073486 68 33 19
0.04843923822045326 -0.07562600821256638 -0.2681390345096588 -0.7094479203224182 0.33659568428993225 -0.6191824674606323 68 33 19
0.07546574622392654 -0.12524238228797913 -0.3243737816810608 -0.7295785546302795 0.18433162569999695 -0.6585871577262878 68 33 19
-0.00599153945222497 -0.08369161188602448 -0.20751924812793732 -0.791052520275116 0.15303128957748413 -0.5922983884811401 68 33 19
-0.22154457867145538 0.22837090492248535 0.23212800920009613 0.43197137117385864 0.899989902973175 -0.05847127363085747 68 33 19
-0.10181330889463425 0.09935741126537323 0.0354861244559288 0.4896532893180847 0.8384960889816284 -0.23909008502960205 68 33 19
-0.24412024021148682 0.23749859631061554 0.21311485767364502 0.3369421064853668 0.9282261729240417 -0.15769025683403015 68 33 19
-0.11881949752569199 0.10400086641311646 0.02187327854335308 0.2058613896369934 0.8634331226348877 -0.46054795384407043 68 33 19
-0.10181330889463425 0.09935741126537323 0.0354861244559288 0.4896532893180847 0.8384960889816284 -0.23909008502960205 68 33 19
-0.06243579462170601 0.0453723706305027 -0.06686665117740631 0.15764214098453522 0.8814463019371033 -0.4451981484889984 68 33 19
-0.18252556025981903 0.16239719092845917 0.1059466078877449 -0.4188486635684967 0.5787447690963745 -0.6997286081314087 68 33 19
-0.16054175794124603 0.12641194462776184 0.06826626509428024 -0.6642252802848816 0.3316178619861603 -0.6699510812759399 68 33 19
-0.2209974080324173 0.16826292872428894 0.14638884365558624 -0.6838282942771912 0.3024347424507141 -0.66401207447052 68 33 19
0.15078140795230865 -0.1216987743973732 -0.37182697653770447 -0.0154240932315588 -0.8891187906265259 -0.45741647481918335 68 33 19
0.18635083734989166 -0.1368727833032608 -0.340732604265213 0.14519158005714417 -0.9229568243026733 -0.3564690351486206 68 33 19
0.11346984654664993 -0.1577220857143402 -0.28382012248039246 -0.0846419557929039 -0.9372061491012573 -0.3383496403694153 68 33 19
0.2257080376148224 0.14314810931682587 0.25913968682289124 -0.004884163849055767 -0.9523912668228149 -0.3048391044139862 68 33 19
0.1968304067850113 0.18908382952213287 0.14605556428432465 0.04439257085323334 -0.8870070576667786 -0.45961713790893555 68 33 19
0.27441316843032837 0.16133174300193787 0.20867571234703064 0.08456842601299286 -0.9075219035148621 -0.41140279173851013 68 33 19
0.2257080376148224 0.14314810931682587 0.25913968682289124 -0.004884163849055767 -0.9523912668228149 -0.3048391044139862 68 33 19
0.009823936969041824 0.23587694764137268 0.05753464251756668 -0.03056664578616619 -0.916509211063385 -0.3988439440727234 68 33 19
0.1968304067850113 0.18908382952213287 0.14605556428432465 0.04439257085323334 -0.8870070576667786 -0.45961713790893555 68 33 19
-0.11915503442287445 0.09508708864450455 0.010089184157550335 -0.466353178024292 0.5683258175849915 -0.6778795123100281 68 33 19
-0.0929630771279335 0.05522521957755089 -0.03625449165701866 -0.6570212841033936 0.3764572739601135 -0.6531484127044678 68 33 19
-0.12359365075826645 0.0881197452545166 0.013295868411660194 -0.659675657749176 0.35110339522361755 -0.6644955277442932 68 33 19
-0.06975498795509338 0.2994235157966614 0.05496217682957649 -0.7344744801521301 -0.24699077010154724 0.6320939660072327 68 33 19
-0.021433379501104355 0.25348347425460815 0.07718971371650696 -0.6849204301834106 -0.4255124032497406 0.5914585590362549 68 33 19
-0.00496384222060442 0.2666621804237366 0.10346464812755585 -0.6584048867225647 -0.23012807965278625 0.7166199684143066 68 33 19
-0.0009940090822055936 0.2912255823612213 -0.033224575221538544 0.6185472011566162 0.10511521250009537 -0.7786850333213806 68 33 19
0.06303489953279495 0.29416537284851074 0.03061734139919281 0.6920039653778076 0.33697375655174255 -0.6384193301200867 68 33 19
-3.358355752425268e-05 0.28600674867630005 -0.0323188491165638 0.5457267165184021 -0.26255714893341064 -0.7957676649093628 68 33 19
0.2605721950531006 0.2069612443447113 0.1932809054851532 0.6703822016716003 0.18599733710289001 -0.7183263301849365 68 33 19
0.28255635499954224 0.1708172708749771 0.20572637021541595 0.6962416172027588 0.023700105026364326 -0.7174162268638611 68 33 19
0.15609173476696014 0.21868063509464264 0.10123509168624878 0.6435821056365967 0.014767393469810486 -0.7652345895767212 68 33 19
0.07205381244421005 0.231922447681427 0.16328644752502441 -0.6518456935882568 -0.1265142261981964 0.7477241158485413 68 33 19
0.06010378897190094 0.22374996542930603 0.1485585868358612 -0.6820082068443298 -0.3158804476261139 0.6596092581748962 68 33 19
0.14225076138973236 0.207576721906662 0.2217443436384201 -0.653525173664093 -0.048210229724645615 0.7553678750991821 68 33 19
-0.06980045139789581 0.2646702826023102 0.010112881660461426 -0.7629412412643433 0.1779388040304184 -0.621496856212616 68 33 19
-0.05821525678038597 0.2982708215713501 0.01983512192964554 -0.7230762243270874 0.43112191557884216 -0.5397171974182129 68 33 19
-0.027188844978809357 0.29520684480667114 -0.020024828612804413 -0.6918166279792786 0.3524622917175293 -0.6302064061164856 68 33 19
-0.05821525678038597 0.2982708215713501 0.01983512192964554 -0.7230762243270874 0.43112191557884216 -0.5397171974182129 68 33 19
-0.010943695902824402 0.32856592535972595 -0.01790771447122097 -0.5986159443855286 0.5421299338340759 -0.5897067785263062 68 33 19
-0.027188844978809357 0.29520684480667114 -0.020024828612804413 -0.6918166279792786 0.3524622917175293 -0.6302064061164856 68 33 19
0.13986951112747192 0.2646239697933197 0.10512404888868332 0.2659408152103424 0.9517626762390137 0.1530463844537735 68 33 19
0.18057158589363098 0.22777524590492249 0.19351521134376526 0.015835631638765335 0.9338089227676392 0.3574214577674866 68 33 19
0.2117668241262436 0.2374861240386963 0.16461338102817535 0.2529642879962921 0.9621785879135132 0.10110151022672653 68 33 19
0.18057158589363098 0.22777524590492249 0.19351521134376526 0.015835631638765335 0.9338089227676392 0.3574214577674866 68 33 19
0.2644038498401642 0.2077273726463318 0.24575088918209076 0.08587493002414703 0.9250755310058594 0.36994680762290955 68 33 19
0.2117668241262436 0.2374861240386963 0.16461338102817535 0.2529642879962921 0.9621785879135132 0.10110151022672653 68 33 19
0.009823936969041824 0.23587694764137268 0.05753464251756668 -0.03056664578616619 -0.916509211063385 -0.3988439440727234 68 33 19
0.07629874348640442 0.24105672538280487 0.04183436185121536 0.0826558992266655 -0.8384613394737244 -0.5386562943458557 68 33 19
0.1530010849237442 0.20957031846046448 0.10334731638431549 0.2062343955039978 -0.7605168223381042 -0.6156958937644958 68 33 19
0.009823936969041824 0.23587694764137268 0.05753464251756668 -0.03056664578616619 -0.916509211063385 -0.3988439440727234 68 33 19
0.004634312354028225 0.262492835521698 0.0019467558013275266 -0.00022522994549944997 -0.8834587931632996 -0.4685087502002716 68 33 19
0.07629874348640442 0.24105672538280487 0.04183436185121536 0.0826558992266655 -0.8384613394737244 -0.5386562943458557 68 33 19
-0.26972126960754395 -0.16678719222545624 -0.07156301289796829 -0.7423664927482605 0.3197021186351776 -0.5887974500656128 68 33 19
-0.1566351354122162 0.06401603668928146 -0.08643417805433273 -0.8863359093666077 0.412943959236145 -0.20948952436447144 68 33 19
-0.22890284657478333 -0.14028578996658325 -0.10598578304052353 -0.6317176222801208 0.23410698771476746 -0.7390038967132568 68 33 19
0.14701935648918152 0.7286437153816223 -0.03216627240180969 0.6600522398948669 -0.020397553220391273 -0.7509426474571228 68 33 19
0.08432324975728989 0.5855497121810913 -0.08071460574865341 0.6163551211357117 -0.029815735295414925 -0.7869036197662354 68 33 19
0.11148608475923538 0.7502276301383972 -0.06155858933925629 0.523557186126709 0.03256966546177864 -0.8513678312301636 68 33 19
0.12945517897605896 0.8097236752510071 0.047788072377443314 0.23586241900920868 0.8964517712593079 0.37515750527381897 68 33 19
0.16215844452381134 0.8090261816978455 0.009861933067440987 0.3671860694885254 0.8955381512641907 0.25136807560920715 68 33 19
0.127405047416687 0.8247861266136169 -0.021102089434862137 0.2555871605873108 0.9528787732124329 0.16339275240898132 68 33 19
-0.03246602416038513 0.378118097782135 -0.07867686450481415 -0.8038026690483093 0.302310973405838 -0.5123565793037415 68 33 19
0.015374260023236275 0.5721866488456726 -0.04361564293503761 -0.9302016496658325 0.2713283598423004 -0.2471957504749298 68 33 19
0.016099289059638977 0.42265209555625916 -0.11408846080303192 -0.6087037920951843 0.27648958563804626 -0.7436619997024536 68 33 19
-0.09792329370975494 0.0280426274985075 -0.038507841527462006 0.6503438353538513 -0.26302412152290344 0.712650716304779 68 33 19
-0.20700287818908691 -0.19114188849925995 -0.020824499428272247 0.701052188873291 -0.301868200302124 0.6460660099983215 68 33 19
-0.052425019443035126 0.04742766544222832 -0.08223626762628555 0.8004453182220459 -0.35625532269477844 0.4820472300052643 68 33 19
0.10075239837169647 0.6366016268730164 0.006022334564477205 0.5435358285903931 -0.30760252475738525 0.7809925675392151 68 33 19
0.10524361580610275 0.63727205991745 0.004880003165453672 0.4278104603290558 -0.29732081294059753 0.8535681366920471 68 33 19
0.12708744406700134 0.7401322722434998 0.032499562948942184 0.6517818570137024 -0.3162994682788849 0.6893004179000854 68 33 19
-0.0669175311923027 0.19700388610363007 -0.06074174493551254 -0.554892897605896 0.1942416876554489 0.8089277744293213 68 33 19
-0.15519501268863678 0.06273382902145386 -0.07893946766853333 -0.7406463027000427 0.39439305663108826 0.543964147567749 68 33 19
-0.10233540087938309 0.04452633485198021 -0.03612116724252701 -0.2643778920173645 0.1817634403705597 0.947135865688324 68 33 19
0.3922811448574066 0.34322577714920044 0.1902485340833664 0.7058066129684448 -0.06404218822717667 -0.7055037617683411 68 33 19
0.3268260955810547 0.4305782616138458 0.12971742451190948 0.6874358654022217 0.12855876982212067 -0.7147758603096008 68 33 19
0.40526530146598816 0.39860525727272034 0.20124731957912445 0.7292903661727905 0.08362159878015518 -0.6790751218795776 68 33 19
0.3922811448574066 0.34322577714920044 0.1902485340833664 0.7058066129684448 -0.06404218822717667 -0.7055037617683411 68 33 19
0.15819977223873138 0.4572489559650421 -0.017641177400946617 0.6641451716423035 0.02242659591138363 -0.7472673654556274 68 33 19
0.3268260955810547 0.4305782616138458 0.12971742451190948 0.6874358654022217 0.12855876982212067 -0.7147758603096008 68 33 19
0.07068546861410141 0.37369823455810547 -0.07672662287950516 0.8284561634063721 -0.1768966019153595 -0.5313830375671387 68 33 19
0.013902692124247551 0.20232057571411133 -0.09397051483392715 0.7839474081993103 -0.26123055815696716 -0.5631919503211975 68 33 19
0.0331992544233799 0.3912728428840637 -0.10953585803508759 0.6031827330589294 -0.07976842671632767 -0.7936040759086609 68 33 19
-0.2734207510948181 -0.2510318160057068 -0.013941730372607708 -0.1433744877576828 -0.9451508522033691 -0.29348549246788025 68 33 19
-0.30941352248191833 -0.23569396138191223 -0.042535047978162766 -0.3143937587738037 -0.897872269153595 -0.3081914782524109 68 33 19
-0.2584128677845001 -0.22312958538532257 -0.07999971508979797 -0.012576094828546047 -0.8853276371955872 -0.46479764580726624 68 33 19
0.031612325459718704 0.343453586101532 -0.038364753127098083 0.6322945952415466 -0.25296273827552795 0.7322659492492676 68 33 19
-0.03479047492146492 0.16519330441951752 -0.04362822696566582 0.6405251622200012 -0.2671240568161011 0.719980776309967 68 33 19
0.046101298183202744 0.35419633984565735 -0.047888267785310745 0.6396237015724182 -0.2729215919971466 0.7186064124107361 68 33 19
-0.03479047492146492 0.16519330441951752 -0.04362822696566582 0.6405251622200012 -0.2671240568161011 0.719980776309967 68 33 19
-0.052425019443035126 0.04742766544222832 -0.08223626762628555 0.8004453182220459 -0.35625532269477844 0.4820472300052643 68 33 19
0.012924017384648323 0.19946607947349548 -0.08294672518968582 0.8059031963348389 -0.32701799273490906 0.4935374855995178 68 33 19
-0.051614146679639816 0.21814948320388794 -0.13380207121372223 -0.6335195302963257 0.271696537733078 -0.7244543433189392 68 33 19
-0.03246602416038513 0.378118097782135 -0.07867686450481415 -0.8038026690483093 0.302310973405838 -0.5123565793037415 68 33 19
0.016099289059638977 0.42265209555625916 -0.11408846080303192 -0.6087037920951843 0.27648958563804626 -0.7436619997024536 68 33 19
0.07778581976890564 0.5633078217506409 -0.0018367358716204762 0.4442489743232727 -0.26381438970565796 0.8561803698539734 68 33 19
0.06707678735256195 0.487545907497406 -0.02220184914767742 0.6259546875953674 -0.2573542296886444 0.7361721992492676 68 33 19
0.08418704569339752 0.566211462020874 -0.009517539292573929 0.5842977166175842 -0.28018897771835327 0.7616366147994995 68 33 19
-0.015805020928382874 0.19245171546936035 0.22154098749160767 -0.6822000741958618 -0.3163003623485565 0.6592095494270325 68 33 19
-0.003494549309834838 0.20047485828399658 0.23657868802547455 -0.6523005366325378 -0.12623104453086853 0.7473751902580261 68 33 19
-0.0830090269446373 0.23629146814346313 0.17465996742248535 -0.659162163734436 -0.22996002435684204 0.7159773707389832 68 33 19
-0.10001469403505325 0.22333000600337982 0.14791147410869598 -0.6847441792488098 -0.4258436858654022 0.5914241671562195 68 33 19
0.056462742388248444 0.45372235774993896 -0.03554130345582962 -0.28410330414772034 -0.9279333353042603 -0.24129867553710938 68 33 19
0.12714584171772003 0.4349285066127777 -0.00873610470443964 -0.12826399505138397 -0.9371974468231201 -0.32435962557792664 68 33 19
0.12702281773090363 0.4276014566421509 0.01559784822165966 -0.23858384788036346 -0.9582812786102295 -0.1573999971151352 68 33 19
0.12702281773090363 0.4276014566421509 0.01559784822165966 -0.23858384788036346 -0.9582812786102295 -0.1573999971151352 68 33 19
0.12714584171772003 0.4349285066127777 -0.00873610470443964 -0.12826399505138397 -0.9371974468231201 -0.32435962557792664 68 33 19
0.21206936240196228 0.3947221040725708 0.08283356577157974 -0.30094343423843384 -0.94851154088974 -0.09878754615783691 68 33 19
0.057165004312992096 0.4720991551876068 -0.02468571439385414 -0.675552248954773 -0.023670770227909088 0.736932098865509 68 33 19
0.13717137277126312 0.42776745557785034 0.03360320255160332 -0.6531578302383423 -0.3409159779548645 0.6761370301246643 68 33 19
0.14933650195598602 0.49873086810112 0.047212015837430954 -0.52003014087677 0.2695651650428772 0.8104956746101379 68 33 19
0.36087968945503235 0.4200337529182434 0.20956817269325256 0.2649696469306946 0.9510300159454346 0.15916340053081512 68 33 19
0.403032511472702 0.40718549489974976 0.20997254550457 0.4038330316543579 0.9107040762901306 0.08681522309780121 68 33 19
0.2706737816333771 0.46308138966560364 0.09125877916812897 0.3804852366447449 0.9246450066566467 0.016205577179789543 68 33 19
0.21206936240196228 0.3947221040725708 0.08283356577157974 -0.30094343423843384 -0.94851154088974 -0.09878754615783691 68 33 19
0.12714584171772003 0.4349285066127777 -0.00873610470443964 -0.12826399505138397 -0.9371974468231201 -0.32435962557792664 68 33 19
0.36522379517555237 0.3297775983810425 0.21908092498779297 -0.2178589403629303 -0.9706032872200012 -0.10230656713247299 68 33 19
0.08455342054367065 0.5335813164710999 -0.04966895654797554 -0.6607344746589661 0.5150207877159119 -0.5460617542266846 68 33 19
0.07999944686889648 0.4780825674533844 -0.07963982969522476 -0.6589841246604919 0.25468072295188904 -0.7077271938323975 68 33 19
0.06566276401281357 0.5331480503082275 -0.024852532893419266 -0.8142006397247314 0.43208572268486023 -0.38778749108314514 68 33 19
0.22604875266551971 0.46688997745513916 0.10949479788541794 -0.5493482351303101 0.2909689247608185 0.7832965850830078 68 33 19
0.28992512822151184 0.4029759466648102 0.1680176705121994 -0.6866674423217773 0.013027574867010117 0.7268549799919128 68 33 19
0.30016404390335083 0.4356567859649658 0.17611882090568542 -0.5631932020187378 0.3356766998767853 0.7550725936889648 68 33 19
0.28992512822151184 0.4029759466648102 0.1680176705121994 -0.6866674423217773 0.013027574867010117 0.7268549799919128 68 33 19
0.3654877841472626 0.38221219182014465 0.24163241684436798 -0.6124463081359863 0.03356519713997841 0.7897992730140686 68 33 19
0.30016404390335083 0.4356567859649658 0.17611882090568542 -0.5631932020187378 0.3356766998767853 0.7550725936889648 68 33 19
0.15819977223873138 0.4572489559650421 -0.017641177400946617 0.6641451716423035 0.02242659591138363 -0.7472673654556274 68 33 19
0.2177814245223999 0.4819207489490509 0.03653005510568619 0.6836827397346497 0.3680644631385803 -0.6301639080047607 68 33 19
0.26583653688430786 0.45807576179504395 0.07654109597206116 0.6852916479110718 0.15238057076931 -0.7121484875679016 68 33 19
0.15819977223873138 0.4572489559650421 -0.017641177400946617 0.6641451716423035 0.02242659591138363 -0.7472673654556274 68 33 19
0.12930752336978912 0.5039119124412537 -0.03916572779417038 0.6644055247306824 0.12853309512138367 -0.7362367510795593 68 33 19
0.2177814245223999 0.4819207489490509 0.03653005510568619 0.6836827397346497 0.3680644631385803 -0.6301639080047607 68 33 19
0.4180178642272949 0.4522051513195038 0.2154342234134674 0.7058068513870239 -0.06404083967208862 -0.7055037617683411 68 33 19
0.3525601029396057 0.539558470249176 0.15490077435970306 0.6874366998672485 0.12856058776378632 -0.7147747278213501 68 33 19
0.43100234866142273 0.5075845122337341 0.22643345594406128 0.729289710521698 0.08362423628568649 -0.6790754795074463 68 33 19
0.4180178642272949 0.4522051513195038 0.2154342234134674 0.7058068513870239 -0.06404083967208862 -0.7055037617683411 68 33 19
0.1839383840560913 0.5662267804145813 0.007546211592853069 0.6641451120376587 0.022424066439270973 -0.7472673058509827 68 33 19
0.3525601029396057 0.539558470249176 0.15490077435970306 0.6874366998672485 0.12856058776378632 -0.7147747278213501 68 33 19
0.08219946920871735 0.5627014636993408 -0.01035542506724596 -0.2841019928455353 -0.9279336333274841 -0.24129937589168549 68 33 19
0.15288327634334564 0.5439073443412781 0.016450166702270508 -0.12826567888259888 -0.9371979832649231 -0.32435762882232666 68 33 19
0.15275698900222778 0.5365815162658691 0.04078185185790062 -0.23858202993869781 -0.9582818150520325 -0.15739932656288147 68 33 19
0.15275698900222778 0.5365815162658691 0.04078185185790062 -0.23858202993869781 -0.9582818150520325 -0.15739932656288147 68 33 19
0.15288327634334564 0.5439073443412781 0.016450166702270508 -0.12826567888259888 -0.9371979832649231 -0.32435762882232666 68 33 19
0.23780855536460876 0.5037002563476562 0.10802137851715088 -0.3009483814239502 -0.948511004447937 -0.09877648949623108 68 33 19
0.08290185034275055 0.581078052520752 0.0005001125391572714 -0.6755501627922058 -0.023670900613069534 0.7369339466094971 68 33 19
0.16290801763534546 0.536746621131897 0.05878891795873642 -0.6531586050987244 -0.34092381596565247 0.6761323809623718 68 33 19
0.17507338523864746 0.6077099442481995 0.07239782810211182 -0.5200326442718506 0.2695607841014862 0.8104954361915588 68 33 19
0.3866165280342102 0.5290130376815796 0.2347526103258133 0.2649714946746826 0.9510303735733032 0.1591583490371704 68 33 19
0.4287694990634918 0.5161646008491516 0.23515869677066803 0.4038299024105072 0.9107046127319336 0.08682499825954437 68 33 19
0.29640886187553406 0.5720610618591309 0.11644354462623596 0.38047242164611816 0.9246498346328735 0.01623024418950081 68 33 19
0.23780855536460876 0.5037002563476562 0.10802137851715088 -0.3009483814239502 -0.948511004447937 -0.09877648949623108 68 33 19
0.15288327634334564 0.5439073443412781 0.016450166702270508 -0.12826567888259888 -0.9371979832649231 -0.32435762882232666 68 33 19
0.3909605145454407 0.43875667452812195 0.24426721036434174 -0.2178587019443512 -0.9706032276153564 -0.10230757296085358 68 33 19
0.11028988659381866 0.6425603628158569 -0.02448257990181446 -0.6607387661933899 0.515014111995697 -0.5460630059242249 68 33 19
0.1057361587882042 0.5870615243911743 -0.05445382371544838 -0.6589912176132202 0.25468015670776367 -0.7077206969261169 68 33 19
0.09139959514141083 0.6421269774436951 0.000333256961312145 -0.8142035007476807 0.4320804476737976 -0.3877873718738556 68 33 19
0.25178560614585876 0.5758690237998962 0.1346806138753891 -0.5493483543395996 0.29096752405166626 0.7832971215248108 68 33 19
0.3156619966030121 0.5119550228118896 0.19320352375507355 -0.6866675615310669 0.01302813459187746 0.7268548011779785 68 33 19
0.32590052485466003 0.5446358919143677 0.20130428671836853 -0.5631911158561707 0.3356790542602539 0.7550731301307678 68 33 19
0.3156619966030121 0.5119550228118896 0.19320352375507355 -0.6866675615310669 0.01302813459187746 0.7268548011779785 68 33 19
0.39122429490089417 0.49118995666503906 0.26681798696517944 -0.6124504804611206 0.033564791083335876 0.789795994758606 68 33 19
0.32590052485466003 0.5446358919143677 0.20130428671836853 -0.5631911158561707 0.3356790542602539 0.7550731301307678 68 33 19
0.1839383840560913 0.5662267804145813 0.007546211592853069 0.6641451120376587 0.022424066439270973 -0.7472673058509827 68 33 19
0.2435196042060852 0.5908991694450378 0.061716992408037186 0.6836857199668884 0.3680596351623535 -0.6301633715629578 68 33 19
0.2915729582309723 0.5670548677444458 0.10172650218009949 0.6852922439575195 0.15237993001937866 -0.7121480703353882 68 33 19
0.1839383840560913 0.5662267804145813 0.007546211592853069 0.6641451120376587 0.022424066439270973 -0.7472673058509827 68 33 19
0.15504412353038788 0.6128910779953003 -0.013980085030198097 0.6644049286842346 0.12853191792964935 -0.7362375855445862 68 33 19
0.2435196042060852 0.5908991694450378 0.061716992408037186 0.6836857199668884 0.3680596351623535 -0.6301633715629578 68 33 19
0.4453645348548889 0.5611885786056519 0.2387142926454544 0.7058079838752747 -0.06403835862874985 -0.7055027484893799 68 33 19
0.37990713119506836 0.6485406756401062 0.1781812161207199 0.6874363422393799 0.12856023013591766 -0.7147752642631531 68 33 19
0.4583483338356018 0.6165673136711121 0.2497129738330841 0.7292898893356323 0.08362315595149994 -0.6790754199028015 68 33 19
0.4453645348548889 0.5611885786056519 0.2387142926454544 0.7058079838752747 -0.06403835862874985 -0.7055027484893799 68 33 19
0.21128509938716888 0.6752097606658936 0.03082638792693615 0.6641452312469482 0.022424617782235146 -0.7472672462463379 68 33 19
0.37990713119506836 0.6485406756401062 0.1781812161207199 0.6874363422393799 0.12856023013591766 -0.7147752642631531 68 33 19
0.10954587906599045 0.6716840267181396 0.012924417853355408 -0.2841041088104248 -0.927933931350708 -0.2412954866886139 68 33 19
0.18022137880325317 0.65289306640625 0.03972431272268295 -0.1282634288072586 -0.9371965527534485 -0.32436251640319824 68 33 19
0.18010388314723969 0.6455639004707336 0.06406201422214508 -0.23858028650283813 -0.9582822918891907 -0.15739943087100983 68 33 19
0.18010388314723969 0.6455639004707336 0.06406201422214508 -0.23858028650283813 -0.9582822918891907 -0.15739943087100983 68 33 19
0.18022137880325317 0.65289306640625 0.03972431272268295 -0.1282634288072586 -0.9371965527534485 -0.32436251640319824 68 33 19
0.26515111327171326 0.6126842498779297 0.13129833340644836 -0.3009333312511444 -0.9485145211219788 -0.09878958016633987 68 33 19
0.11024818569421768 0.6900607943534851 0.023779964074492455 -0.6755517721176147 -0.02367059513926506 0.7369323968887329 68 33 19
0.19025473296642303 0.6457290053367615 0.0820690393447876 -0.65315842628479 -0.3409157693386078 0.6761365532875061 68 33 19
0.20241957902908325 0.7166926860809326 0.09567756205797195 -0.5200319290161133 0.2695671617984772 0.8104939460754395 68 33 19
0.41396158933639526 0.6379956007003784 0.2580345869064331 0.2649666368961334 0.9510301351547241 0.15916772186756134 68 33 19
0.45611587166786194 0.6251471638679504 0.2584385871887207 0.4038270115852356 0.9107061624526978 0.0868210718035698 68 33 19
0.32374975085258484 0.6810460686683655 0.13971860706806183 0.3804839253425598 0.9246454238891602 0.01621202565729618 68 33 19
0.26515111327171326 0.6126842498779297 0.13129833340644836 -0.3009333312511444 -0.9485145211219788 -0.09878958016633987 68 33 19
0.18022137880325317 0.65289306640625 0.03972431272268295 -0.1282634288072586 -0.9371965527534485 -0.32436251640319824 68 33 19
0.4183065593242645 0.5477391481399536 0.2675480842590332 -0.21785448491573334 -0.9706042408943176 -0.10230816155672073 68 33 19
0.13763678073883057 0.7515429258346558 -0.00120347342453897 -0.6607343554496765 0.5150208473205566 -0.5460619926452637 68 33 19
0.13308262825012207 0.6960442066192627 -0.03117409721016884 -0.6589801907539368 0.25468185544013977 -0.7077302932739258 68 33 19
0.11874599754810333 0.7511097192764282 0.023613087832927704 -0.8141967058181763 0.43208616971969604 -0.387795627117157 68 33 19
0.2791319787502289 0.6848517656326294 0.15796050429344177 -0.5493472814559937 0.2909695506095886 0.783297061920166 68 33 19
0.3430083394050598 0.6209375262260437 0.21648336946964264 -0.6866677403450012 0.013027496635913849 0.726854681968689 68 33 19
0.3532472252845764 0.6536182165145874 0.22458456456661224 -0.5631945729255676 0.3356722295284271 0.7550734877586365 68 33 19
0.3430083394050598 0.6209375262260437 0.21648336946964264 -0.6866677403450012 0.013027496635913849 0.726854681968689 68 33 19
0.41857096552848816 0.6001743674278259 0.29009810090065 -0.6124473214149475 0.033566299825906754 0.789798378944397 68 33 19
0.3532472252845764 0.6536182165145874 0.22458456456661224 -0.5631945729255676 0.3356722295284271 0.7550734877586365 68 33 19
0.21128509938716888 0.6752097606658936 0.03082638792693615 0.6641452312469482 0.022424617782235146 -0.7472672462463379 68 33 19
0.2708645761013031 0.699882447719574 0.08499569445848465 0.6836822032928467 0.3680707514286041 -0.6301606893539429 68 33 19
0.31891873478889465 0.6760376691818237 0.12500590085983276 0.6852930188179016 0.15237881243228912 -0.7121475338935852 68 33 19
0.21128509938716888 0.6752097606658936 0.03082638792693615 0.6641452312469482 0.022424617782235146 -0.7472672462463379 68 33 19
0.18239089846611023 0.7218731641769409 0.009300078265368938 0.6644057035446167 0.1285322904586792 -0.7362367510795593 68 33 19
0.2708645761013031 0.699882447719574 0.08499569445848465 0.6836822032928467 0.3680707514286041 -0.6301606893539429 68 33 19
0.5111212730407715 0.5742770433425903 0.2749554216861725 0.6595804691314697 -0.02225278504192829 -0.7513045072555542 68 33 19
0.47674524784088135 0.4187617599964142 0.25130510330200195 0.8400500416755676 -0.15134844183921814 -0.520969808101654 68 33 19
0.4375067353248596 0.43211960792541504 0.21729397773742676 0.6160129308700562 -0.02612973563373089 -0.7873024940490723 68 33 19
0.4375067353248596 0.43211960792541504 0.21729397773742676 0.6160129308700562 -0.02612973563373089 -0.7873024940490723 68 33 19
0.402153879404068 0.23223814368247986 0.2017177790403366 0.6360142827033997 -0.09498453140258789 -0.765809178352356 68 33 19
0.36292514204978943 0.2478571981191635 0.1697910726070404 0.3356403410434723 0.03818676620721817 -0.9412159323692322 68 33 19
0.3508228659629822 0.24735330045223236 0.17304448783397675 -0.6317954659461975 0.32535499334335327 -0.7035471796989441 68 33 19
0.373513400554657 0.42701271176338196 0.2515548765659332 -0.7952814102172852 0.3558337390422821 -0.4908255636692047 68 33 19
0.4151252210140228 0.4345535337924957 0.20682968199253082 -0.3867195248603821 0.307218074798584 -0.8695200085639954 68 33 19
0.24172405898571014 -0.1091487854719162 0.24958309531211853 0.4365685284137726 -0.14786624908447266 0.8874363899230957 68 33 19
0.10864541679620743 -0.3834202289581299 0.2681223154067993 0.7083737254142761 -0.3811323046684265 0.5940915942192078 68 33 19
0.16952578723430634 -0.313973993062973 0.2313397228717804 0.7952118515968323 -0.3806248903274536 0.47197750210762024 68 33 19
0.3321915566921234 0.20883139967918396 0.24336518347263336 -0.5374542474746704 0.04831446334719658 0.8419077396392822 68 33 19
0.404205858707428 0.418877512216568 0.2889385223388672 -0.5262003540992737 -0.04176470637321472 0.8493344187736511 68 33 19
0.37071728706359863 0.42186999320983887 0.2631428837776184 -0.8382427096366882 0.13954511284828186 0.5271397829055786 68 33 19
0.4601907730102539 0.48172804713249207 0.3091221749782562 0.561372697353363 -0.3764203190803528 0.7369996309280396 68 33 19
0.46434688568115234 0.48262089490890503 0.3077389597892761 0.4743594229221344 -0.3713523745536804 0.7981733679771423 68 33 19
0.4920767545700073 0.5827656388282776 0.34030017256736755 0.6411557197570801 -0.38652241230010986 0.6629628539085388 68 33 19
0.3321915566921234 0.20883139967918396 0.24336518347263336 -0.5374542474746704 0.04831446334719658 0.8419077396392822 68 33 19
0.2474568486213684 0.05841398984193802 0.20453500747680664 -0.7888402342796326 0.30233752727508545 0.5350918769836426 68 33 19
0.27287712693214417 0.047821130603551865 0.226352259516716 -0.5491217970848083 0.18907330930233002 0.8140740394592285 68 33 19
0.402153879404068 0.23223814368247986 0.2017177790403366 0.6360142827033997 -0.09498453140258789 -0.765809178352356 68 33 19
0.3532978892326355 0.05582452937960625 0.1926439255475998 0.7839855551719666 -0.26798954606056213 -0.5599538087844849 68 33 19
0.30249446630477905 0.07787137478590012 0.14949482679367065 0.3323151171207428 -0.06514067947864532 -0.9409162402153015 68 33 19
0.3532978892326355 0.05582452937960625 0.1926439255475998 0.7839855551719666 -0.26798954606056213 -0.5599538087844849 68 33 19
0.288429856300354 -0.09398362040519714 0.19113264977931976 0.7263644337654114 -0.36632058024406433 -0.5815529823303223 68 33 19
0.30249446630477905 0.07787137478590012 0.14949482679367065 0.3323151171207428 -0.06514067947864532 -0.9409162402153015 68 33 19
0.30249446630477905 0.07787137478590012 0.14949482679367065 0.3323151171207428 -0.06514067947864532 -0.9409162402153015 68 33 19
0.288429856300354 -0.09398362040519714 0.19113264977931976 0.7263644337654114 -0.36632058024406433 -0.5815529823303223 68 33 19
0.23686586320400238 -0.07301538437604904 0.1484808325767517 0.2813129425048828 -0.17373812198638916 -0.9437574148178101 68 33 19
0.06521229445934296 -0.3970267176628113 0.2717359662055969 -0.14336617290973663 -0.9451493620872498 -0.2934941053390503 68 33 19
0.0292181596159935 -0.38168850541114807 0.24314206838607788 -0.31439706683158875 -0.8978708982467651 -0.30819225311279297 68 33 19
0.08021900057792664 -0.36912423372268677 0.20567762851715088 -0.012575197964906693 -0.8853287100791931 -0.46479564905166626 68 33 19
0.183230921626091 -0.0845075249671936 0.19532109797000885 -0.7914081811904907 0.3542151153087616 -0.4982016086578369 68 33 19
0.24634426832199097 0.06076038256287575 0.1966921091079712 -0.8994311690330505 0.37638017535209656 -0.2221744805574417 68 33 19
0.2898818850517273 0.07767998427152634 0.15262949466705322 -0.633151650428772 0.29503583908081055 -0.7155926823616028 68 33 19
0.4328506886959076 0.40936708450317383 0.2974620461463928 0.4470701813697815 -0.33302220702171326 0.830195426940918 68 33 19
0.41834524273872375 0.33948633074760437 0.27391645312309265 0.6273110508918762 -0.3292255103588104 0.705755889415741 68 33 19
0.4394409954547882 0.4129670262336731 0.29013049602508545 0.6024398803710938 -0.3571278154850006 0.7138108611106873 68 33 19
0.21175195276737213 0.13733012974262238 0.2830084264278412 0.6951364874839783 0.022519299760460854 -0.7185249924659729 68 33 19
0.21573881804943085 0.13194172084331512 0.2873292565345764 0.8197325468063354 -0.2620411217212677 -0.5092867016792297 68 33 19
0.21040120720863342 0.13254716992378235 0.2827288508415222 0.5109321475028992 -0.4046754837036133 -0.7584103345870972 68 33 19
0.212714284658432 0.12823621928691864 0.29336464405059814 0.5995330810546875 -0.7688626050949097 0.22228430211544037 68 33 19
0.21299242973327637 0.12812809646129608 0.2881358861923218 0.45644888281822205 -0.8204238414764404 -0.34432411193847656 68 33 19
0.21613672375679016 0.13082413375377655 0.29003098607063293 0.893019437789917 -0.44987931847572327 0.011175977997481823 68 33 19
0.1549026370048523 0.10964960604906082 0.33643338084220886 -0.006830182857811451 -0.9518284201622009 -0.30655476450920105 68 33 19
0.15356995165348053 0.10623961687088013 0.3483951687812805 0.05054958909749985 -0.9957047700881958 0.07756717503070831 68 33 19
0.14681950211524963 0.10792700946331024 0.34394997358322144 -0.2676357924938202 -0.9615147113800049 -0.06213425472378731 68 33 19
0.15505148470401764 0.11203060299158096 0.3554127812385559 0.22718223929405212 -0.5181532502174377 0.8245638012886047 68 33 19
0.1588386744260788 0.1084594801068306 0.3484348654747009 0.5092183351516724 -0.7903208136558533 0.34071967005729675 68 33 19
0.15925517678260803 0.11285606026649475 0.35296982526779175 0.5994899272918701 -0.5001503825187683 0.624869167804718 68 33 19
0.15925517678260803 0.11285606026649475 0.35296982526779175 0.5994899272918701 -0.5001503825187683 0.624869167804718 68 33 19
0.1588386744260788 0.1084594801068306 0.3484348654747009 0.5092183351516724 -0.7903208136558533 0.34071967005729675 68 33 19
0.17349635064601898 0.11727399379014969 0.33877962827682495 0.7087597846984863 -0.4763227701187134 0.5203614830970764 68 33 19
0.14971569180488586 0.11075952649116516 0.35402217507362366 -0.43201369047164917 -0.4816451668739319 0.7624841928482056 68 33 19
0.1524076908826828 0.10722259432077408 0.3521347641944885 -0.04678742215037346 -0.8396884799003601 0.5410491228103638 68 33 19
0.15505148470401764 0.11203060299158096 0.3554127812385559 0.22718223929405212 -0.5181532502174377 0.8245638012886047 68 33 19
0.14508897066116333 0.10947544127702713 0.34791553020477295 -0.5437153577804565 -0.7577760815620422 0.36076176166534424 68 33 19
0.15356995165348053 0.10623961687088013 0.3483951687812805 0.05054958909749985 -0.9957047700881958 0.07756717503070831 68 33 19
0.1524076908826828 0.10722259432077408 0.3521347641944885 -0.04678742215037346 -0.8396884799003601 0.5410491228103638 68 33 19
-0.08715299516916275 0.25079119205474854 0.039702221751213074 0.03196624666452408 -0.8130152225494385 -0.5813643336296082 68 33 19
-0.09002771973609924 0.25579217076301575 0.03334091976284981 -0.08043471723794937 -0.5818053483963013 -0.8093410134315491 68 33 19
-0.08305416256189346 0.2538771331310272 0.036873988807201385 0.3152325749397278 -0.5985321998596191 -0.7364697456359863 68 33 19
-0.09512245655059814 0.26348623633384705 0.03544161096215248 -0.5761433839797974 0.2552633583545685 -0.7764660716056824 68 33 19
-0.08955390006303787 0.2592751085758209 0.03182816877961159 -0.11664125323295593 -0.07387125492095947 -0.9904230833053589 68 33 19
-0.09393911063671112 0.25785166025161743 0.03399179130792618 -0.49355870485305786 -0.1704898178577423 -0.8528382182121277 68 33 19
-0.09003523737192154 0.2634316682815552 0.032644499093294144 -0.20096488296985626 0.26707789301872253 -0.9424874782562256 68 33 19
-0.08622268587350845 0.25893884897232056 0.032378412783145905 0.34596577286720276 -0.17136996984481812 -0.9224640727043152 68 33 19
-0.08955390006303787 0.2592751085758209 0.03182816877961159 -0.11664125323295593 -0.07387125492095947 -0.9904230833053589 68 33 19
-0.08622268587350845 0.25893884897232056 0.032378412783145905 0.34596577286720276 -0.17136996984481812 -0.9224640727043152 68 33 19
-0.0861428752541542 0.2634992301464081 0.03302843123674393 0.330123633146286 0.24315765500068665 -0.9120815396308899 68 33 19
-0.08115881681442261 0.2617385983467102 0.03615305572748184 0.6311715841293335 0.10932356864213943 -0.7679002285003662 68 33 19
-0.09002771973609924 0.25579217076301575 0.03334091976284981 -0.08043471723794937 -0.5818053483963013 -0.8093410134315491 68 33 19
-0.08955390006303787 0.2592751085758209 0.03182816877961159 -0.11664125323295593 -0.07387125492095947 -0.9904230833053589 68 33 19
-0.08622268587350845 0.25893884897232056 0.032378412783145905 0.34596577286720276 -0.17136996984481812 -0.9224640727043152 68 33 19
-0.1527005136013031 0.23250812292099 0.08855391293764114 -0.876704216003418 -0.39535120129585266 0.27402058243751526 68 33 19
-0.1468157172203064 0.22695329785346985 0.08997456729412079 -0.5597741603851318 -0.8011165857315063 0.21181412041187286 68 33 19
-0.10741036385297775 0.21237768232822418 0.1301441490650177 -0.6426172852516174 -0.6428855657577515 0.41682273149490356 68 33 19
-0.15318019688129425 0.23415805399417877 0.08432206511497498 -0.9739575982093811 0.04225313290953636 -0.2227584719657898 68 33 19
-0.15231738984584808 0.23014399409294128 0.08351002633571625 -0.8530677556991577 -0.5126352310180664 -0.09736837446689606 68 33 19
-0.1527005136013031 0.23250812292099 0.08855391293764114 -0.876704216003418 -0.39535120129585266 0.27402058243751526 68 33 19
-0.15016819536685944 0.23524896800518036 0.07934613525867462 -0.7630530595779419 0.18162180483341217 -0.6202930808067322 68 33 19
-0.15156486630439758 0.23122034966945648 0.0807923749089241 -0.7703164219856262 -0.2667520344257355 -0.5791855454444885 68 33 19
-0.15318019688129425 0.23415805399417877 0.08432206511497498 -0.9739575982093811 0.04225313290953636 -0.2227584719657898 68 33 19
-0.13974474370479584 0.2367297112941742 0.07029911130666733 -0.5518574714660645 -0.20868703722953796 -0.8074051141738892 68 33 19
-0.14745359122753143 0.22959624230861664 0.07869497686624527 -0.3218521773815155 -0.7072806358337402 -0.6294165849685669 68 33 19
-0.15156486630439758 0.23122034966945648 0.0807923749089241 -0.7703164219856262 -0.2667520344257355 -0.5791855454444885 68 33 19
-0.13117454946041107 0.22182296216487885 0.09423135966062546 -0.10449915379285812 -0.9389981627464294 -0.3276621401309967 68 33 19
-0.15038421750068665 0.22850272059440613 0.08248576521873474 -0.49002528190612793 -0.8273018598556519 -0.2746759355068207 68 33 19
-0.14745359122753143 0.22959624230861664 0.07869497686624527 -0.3218521773815155 -0.7072806358337402 -0.6294165849685669 68 33 19
-0.1468157172203064 0.22695329785346985 0.08997456729412079 -0.5597741603851318 -0.8011165857315063 0.21181412041187286 68 33 19
-0.15231738984584808 0.23014399409294128 0.08351002633571625 -0.8530677556991577 -0.5126352310180664 -0.09736837446689606 68 33 19
-0.15038421750068665 0.22850272059440613 0.08248576521873474 -0.49002528190612793 -0.8273018598556519 -0.2746759355068207 68 33 19
