ply
format ascii 1.0
comment Created in Blender version 4.1.1
element vertex 596
property float x
property float y
property float z
property float nx
property float ny
property float nz
property uchar red
property uchar green
property uchar blue
property uchar alpha
end_header
-0.21694404 -0.7186116 0.10686635 -5.722505 -18.955387 2.8188987 253 253 253 255
-0.43119043 -0.25621247 0.10817055 -16.807291 -9.986858 4.216359 253 253 253 255
0.4518167 -0.6373995 -0.33815986 10.61433 -14.974145 -7.94424 253 253 253 255
-0.3476162 -0.122551925 0.10780505 -18.103664 -6.382438 5.614429 253 253 253 255
0.051554266 -0.75953186 0.10468509 1.341784 -19.768059 2.7246008 253 253 253 255
0.10131671 -0.7485404 0.104634754 2.657213 -19.63182 2.7442348 253 253 253 255
-0.42505828 -0.82926357 -0.2701073 -8.7621765 -17.09449 -5.5680084 253 253 253 255
0.21216707 -0.71322304 0.10353019 5.6481543 -18.986897 2.7561042 253 253 253 255
0.40316138 -0.0016927146 -0.21068685 17.725409 -0.07442196 -9.263065 253 253 253 255
0.13832912 -0.20728996 0.10409301 10.243832 -15.350661 7.7085085 253 253 253 255
0.4061553 -0.37857407 -0.21116228 13.674605 -12.74599 -7.1094995 253 253 253 255
0.30969802 -0.3761978 -0.21002395 11.673266 -14.179805 -7.9163103 253 253 253 255
0.39545316 -0.024101965 0.102698795 19.324272 -1.1777704 5.0184946 253 253 253 255
-0.07103076 0.16764979 0.1059397 -6.7438374 15.9170885 10.058179 253 253 253 255
-0.2958814 0.42280987 0.1068983 -11.228647 16.04556 4.056772 253 253 253 255
-0.2058697 0.53081465 0.10678965 -7.1079345 18.327106 3.6870596 253 253 253 255
-0.38422063 -0.65250325 -0.26985785 -9.5592575 -16.23402 -6.713956 253 253 253 255
0.453689 -0.6805936 -0.3383892 10.250742 -15.377471 -7.6456347 253 253 253 255
0.045771852 1.1087848 0.10495269 0.8212547 19.894207 1.8830981 253 253 253 255
0.24078687 -0.36598438 -0.21014845 9.911248 -15.064618 -8.650113 253 253 253 255
0.083788455 1.1079688 0.10416825 1.5015788 19.85599 1.8668067 253 253 253 255
0.12323135 1.1058282 0.10404306 2.2054293 19.790627 1.8620229 253 253 253 255
-0.18239813 -0.7352457 0.105937 -4.769177 -19.224525 2.7699423 253 253 253 255
-0.32304442 -0.6840895 0.1064953 -8.456795 -17.908386 2.7878795 253 253 253 255
-0.34557736 -0.27321982 0.10630935 -15.251132 -12.057825 4.6916785 253 253 253 255
0.17401572 -0.7309336 0.10328189 4.588855 -19.274973 2.7235794 253 253 253 255
0.3519378 -0.6636394 0.10205384 9.28492 -17.508318 2.6924124 253 253 253 255
0.10976347 -0.30591446 0.1027984 6.4400063 -17.948511 6.031354 253 253 253 255
0.41223028 -0.61035097 -0.21067524 10.762364 -15.934834 -5.5002365 253 253 253 255
0.38295463 -0.80294836 -0.2102397 8.378824 -17.56804 -4.5999217 253 253 253 255
0.45982793 -0.2334088 0.101916745 17.495577 -8.88076 3.877738 253 253 253 255
0.45284262 -0.7191136 -0.3384211 9.901189 -15.723076 -7.3994164 253 253 253 255
-0.4146318 -0.4602621 -0.20571831 -12.704181 -14.102277 -6.3031397 253 253 253 255
0.15817969 0.13475922 0.10292595 13.64244 11.622506 8.877 253 253 253 255
0.40417135 0.35406768 0.100771405 14.786043 12.953072 3.686581 253 253 253 255
-0.40267769 -0.9375159 -0.20524125 -7.7380476 -18.015753 -3.9440143 253 253 253 255
-0.1489145 -0.7528171 0.1044479 -3.8455374 -19.440596 2.6972413 253 253 253 255
0.2593395 1.0799013 -0.2093619 4.5894036 19.110483 -3.7049744 253 253 253 255
0.44822827 -0.7619119 -0.33846992 9.470655 -16.098507 -7.1515613 253 253 253 255
-0.35138744 -0.19595942 0.1060334 -16.890686 -9.419485 5.096872 253 253 253 255
0.14035188 -0.7489183 0.10238429 3.6511738 -19.482681 2.663469 253 253 253 255
0.41603935 -0.73941094 -0.3382364 9.110113 -16.191061 -7.4064436 253 253 253 255
0.37424096 -0.25423837 0.1010412 16.145826 -10.968571 4.3592067 253 253 253 255
0.18724096 -0.21828844 0.102545895 12.264939 -14.298657 6.717115 253 253 253 255
0.42058834 0.5687704 -0.2761148 11.077385 14.980178 -7.272265 253 253 253 255
0.39615992 -0.069730915 0.100108996 19.11415 -3.3644168 4.8301153 253 253 253 255
-0.3342676 0.113571815 0.104688846 -18.155382 6.1685305 5.6860614 253 253 253 255
-0.27913254 0.12874407 0.104821995 -17.189379 7.928243 6.4550877 253 253 253 255
0.34954548 -0.7619052 -0.33819804 7.734048 -16.857925 -7.4829745 253 253 253 255
-0.4024959 0.30257577 0.10561835 -15.646097 11.761933 4.105669 253 253 253 255
0.36999336 0.6755481 -0.27609655 9.043821 16.512558 -6.748684 253 253 253 255
0.31108797 -0.7600608 -0.3378559 7.0061717 -17.11772 -7.609026 253 253 253 255
-0.0132395895 1.0210516 -0.20717148 -0.2541331 19.599024 -3.9766443 253 253 253 255
0.27869 -0.741053 -0.33694297 6.4778438 -17.224964 -7.8318696 253 253 253 255
0.15328224 0.19414717 0.10245135 11.45007 14.50265 7.6530404 253 253 253 255
0.3774643 0.7569854 -0.27610752 8.484263 17.014757 -6.206068 253 253 253 255
-0.21150939 0.98154736 -0.20613554 -4.1269374 19.151794 -4.0220838 253 253 253 255
0.24027325 -0.74672496 -0.33684742 5.629017 -17.493948 -7.891515 253 253 253 255
-0.38275212 -0.5887797 0.10409255 -10.782862 -16.587053 2.932487 253 253 253 255
0.20118341 -0.7388309 -0.3364152 4.810849 -17.667482 -8.044614 253 253 253 255
-0.3903833 -0.16803442 0.105093494 -17.833378 -7.6761003 4.800851 253 253 253 255
0.29871833 -0.66540426 0.1002329 8.114754 -18.075865 2.7228503 253 253 253 255
0.38015944 -0.58671564 0.099999495 10.76593 -16.615503 2.831937 253 253 253 255
0.3491118 -0.31532332 0.0985659 14.526697 -13.120744 4.101371 253 253 253 255
0.12037451 -0.16461943 0.10130844 10.572499 -14.458533 8.897925 253 253 253 255
0.45427692 -0.8023554 -0.3386092 9.249802 -16.337238 -6.894623 253 253 253 255
-0.40218556 0.22441141 0.104625456 -17.031208 9.503069 4.4305367 253 253 253 255
-0.40305984 0.26503998 0.10462641 -16.331127 10.738857 4.2392397 253 253 253 255
0.27851367 -0.35526067 -0.20964964 11.191405 -14.2753 -8.424269 253 253 253 255
-0.30832502 1.0852946 0.10451845 -5.4422836 19.15667 1.8448682 253 253 253 255
0.1832614 0.52174604 0.0997143 6.5227637 18.570337 3.5490987 253 253 253 255
0.4191654 -0.78668904 -0.33851558 8.792095 -16.500992 -7.100445 253 253 253 255
-0.3978101 0.5048014 -0.27144477 -11.403772 14.470825 -7.7813363 253 253 253 255
0.39348587 -0.43424505 0.09843495 13.243929 -14.6158 3.313119 253 253 253 255
0.3956157 -0.37326178 0.097913645 14.317016 -13.508044 3.5434165 253 253 253 255
0.43086946 -0.83298737 -0.33846757 8.643025 -16.709309 -6.7894893 253 253 253 255
0.08196927 -0.16628529 0.100465894 7.774651 -15.771888 9.529026 253 253 253 255
0.27540064 -0.16856498 0.09757665 16.329027 -9.994538 5.7855053 253 253 253 255
-0.40436113 0.18296649 0.10364469 -17.74406 8.028883 4.548107 253 253 253 255
0.39680436 0.6956485 0.098779954 9.834899 17.241827 2.4482868 253 253 253 255
0.45137778 -0.86629766 -0.33886677 8.731168 -16.757118 -6.5548253 253 253 253 255
0.3261033 -0.6926226 0.0987651 8.449408 -17.946 2.559025 253 253 253 255
0.14749916 0.9461285 -0.20750725 3.0108545 19.313026 -4.2357807 253 253 253 255
-0.30497822 -0.16413698 0.27553135 -13.782077 -7.4174104 12.451362 253 253 253 255
0.39700058 -0.85446554 -0.3381722 7.9317613 -17.071556 -6.7564163 253 253 253 255
0.3559931 0.56523114 -0.2079412 10.176873 16.158417 -5.9444723 253 253 253 255
0.34611157 -0.19191237 0.09754419 16.982866 -9.416681 4.7862606 253 253 253 255
0.42220777 -0.2501524 0.09733605 16.877851 -9.9999 3.8910313 253 253 253 255
-0.33612892 0.07010292 0.1017062 -18.772497 3.9151847 5.680199 253 253 253 255
-0.3213928 0.21096687 0.10109204 -16.170004 10.614226 5.0861716 253 253 253 255
0.419599 -0.8864001 -0.33820638 8.089611 -17.08925 -6.5204105 253 253 253 255
-0.40299857 0.35119474 0.10211585 -14.810189 12.906399 3.752755 253 253 253 255
-0.10685794 0.5204089 0.100635245 -3.9524763 19.248959 3.7223103 253 253 253 255
0.073589064 0.51999664 0.09894055 2.7539961 19.460348 3.7027502 253 253 253 255
0.025464261 1.0231999 -0.20709865 0.48770025 19.596674 -3.9664242 253 253 253 255
0.41847137 0.74773055 -0.27711198 9.29357 16.60588 -6.1542077 253 253 253 255
0.4038286 0.5023617 0.09725615 12.390302 15.413501 2.984021 253 253 253 255
0.16638221 1.0994421 0.09775795 2.9810936 19.698862 1.7515432 253 253 253 255
-0.00491033 -0.7976686 0.09906005 -0.12217624 -19.847168 2.4647598 253 253 253 255
-0.28643644 -0.69934875 0.10146775 -7.5129313 -18.343195 2.6613941 253 253 253 255
-0.17990658 0.9575796 -0.20574284 -3.613239 19.232004 -4.132134 253 253 253 255
-0.3935573 -0.21342708 0.1018443 -17.14319 -9.296793 4.4362946 253 253 253 255
-0.21397948 -0.29972678 0.100941 -11.207399 -15.698503 5.286891 253 253 253 255
0.36471933 -0.8745375 -0.3379914 7.250744 -17.386105 -6.7193837 253 253 253 255
-0.18964167 0.9211047 -0.20522825 -3.940372 19.1387 -4.26423 253 253 253 255
0.03397787 -0.792526 0.09933435 0.8500318 -19.826797 2.4850693 253 253 253 255
-0.27046782 0.8689279 -0.20503704 -5.798676 18.62932 -4.395878 253 253 253 255
-0.26529673 0.82503206 -0.20435834 -5.959007 18.531595 -4.590229 253 253 253 255
0.27813187 -0.6987147 0.0971165 7.335846 -18.428896 2.5614886 253 253 253 255
-0.4155762 0.7811386 -0.20385818 -9.153798 17.205954 -4.4903355 253 253 253 255
0.2602012 -0.22062182 0.0972922 14.669735 -12.438314 5.485182 253 253 253 255
0.39203784 -0.16465767 0.0969127 17.978569 -7.55108 4.4443455 253 253 253 255
0.398136 -0.11092912 0.09711265 18.755375 -5.225645 4.5747786 253 253 253 255
-0.23478931 0.20518413 0.100160755 -14.338114 12.530184 6.1166167 253 253 253 255
-0.40282834 0.3897553 0.10111015 -14.145148 13.686094 3.5504408 253 253 253 255
0.4312381 -0.9336966 -0.33873418 7.9651017 -17.245668 -6.2565255 253 253 253 255
0.3650602 0.992129 0.0959552 6.878153 18.692846 1.8079059 253 253 253 255
0.3052956 1.0856237 0.09683985 5.3944654 19.18259 1.7111263 253 253 253 255
-0.31887665 -0.7219164 0.10079225 -8.015842 -18.147358 2.5336912 253 253 253 255
0.39388365 -0.9384314 -0.33814248 7.3455257 -17.500784 -6.306011 253 253 253 255
0.21437648 -0.33932602 -0.2076314 9.487863 -15.017873 -9.18934 253 253 253 255
-0.4032441 -0.08309674 0.1001686 -19.033201 -3.9221826 4.7279778 253 253 253 255
0.072083324 -0.7918447 0.098216146 1.7994694 -19.767406 2.4518423 253 253 253 255
0.20585066 -0.7504106 0.09729835 5.2500052 -19.138433 2.481492 253 253 253 255
0.37873226 -0.6342195 0.094969355 10.170362 -17.031143 2.5502787 253 253 253 255
0.34150594 -0.91019064 -0.33790618 6.636334 -17.687332 -6.566381 253 253 253 255
0.031644143 -1.0769476 -0.20610045 0.57694894 -19.635345 -3.757707 253 253 253 255
0.35544884 -0.95261806 -0.33804458 6.63464 -17.78112 -6.3097806 253 253 253 255
0.2292422 -0.069461584 0.30903462 11.726009 -3.553042 15.807486 253 253 253 255
-0.24776603 -0.7467916 0.099464945 -6.2481823 -18.832647 2.5083146 253 253 253 255
-0.066883236 -0.8034075 0.09790441 -1.6471477 -19.785688 2.4111128 253 253 253 255
-0.3944468 -0.25244632 0.0999474 -16.474411 -10.543639 4.1743894 253 253 253 255
-0.3380071 0.02062422 0.09922445 -19.157413 1.1689303 5.6237984 253 253 253 255
0.41595355 0.6677716 -0.2078502 10.223522 16.412836 -5.10865 253 253 253 255
0.21455133 -0.7742106 -0.33697602 4.9254284 -17.773457 -7.735916 253 253 253 255
0.34054664 0.43977055 -0.20632415 11.480806 14.825931 -6.9557805 253 253 253 255
0.30971706 -0.2873753 0.09518975 14.302537 -13.270808 4.395802 253 253 253 255
0.17680722 -0.76890284 -0.33641323 4.12283 -17.929447 -7.8445597 253 253 253 255
0.06260246 1.0159267 -0.20539124 1.2057837 19.567726 -3.9560332 253 253 253 255
-0.26945266 0.47478515 0.09871705 -9.714016 17.116442 3.5588403 253 253 253 255
-0.2824945 1.0165268 -0.20326696 -5.2583904 18.92177 -3.783639 253 253 253 255
0.14499472 -0.78950465 -0.33623418 3.3321235 -18.143608 -7.7269983 253 253 253 255
-0.18942563 0.88352215 -0.20474315 -4.089032 19.072134 -4.419684 253 253 253 255
0.38595548 0.84758806 0.093833745 8.246554 18.11007 2.0049076 253 253 253 255
-0.36493134 -0.7211131 0.098171756 -8.964879 -17.714817 2.4116812 253 253 253 255
-0.14824697 -0.790431 0.0977806 -3.6598072 -19.513552 2.413932 253 253 253 255
-0.11127433 -0.8001998 0.097405195 -2.734852 -19.666962 2.3939826 253 253 253 255
-0.15539622 -0.2997453 0.0970531 -8.846822 -17.064722 5.525305 253 253 253 255
0.08399762 -0.83687955 -0.33606273 1.8547888 -18.479507 -7.42075 253 253 253 255
-0.40272337 -0.12520714 0.09897615 -18.593103 -5.7806163 4.569573 253 253 253 255
-0.059825715 0.19585809 -0.20514464 -4.1277804 13.513575 -14.154316 253 253 253 255
0.35841683 -0.7126287 0.09431395 8.924257 -17.743814 2.3483326 253 253 253 255
0.31371096 -0.18909352 -0.20718005 14.909297 -8.98678 -9.846353 253 253 253 255
0.049496174 -0.85230774 -0.33571538 1.0790787 -18.581375 -7.3190165 253 253 253 255
-0.20781252 0.14671963 0.09784754 -15.249156 10.766198 7.1799936 253 253 253 255
0.017386906 0.49653473 0.09531535 0.68736625 19.629786 3.768155 253 253 253 255
0.31195897 0.34065208 0.093883395 13.236666 14.454136 3.9835467 253 253 253 255
-0.34436297 -0.7534251 0.09768235 -8.256792 -18.064877 2.3421304 253 253 253 255
-0.003570219 -0.9257137 -0.33546177 -0.07251911 -18.80331 -6.8139763 253 253 253 255
-0.22244963 -0.7748863 0.0962636 -5.4796567 -19.087965 2.3712847 253 253 253 255
-0.18590838 -0.7836265 0.0970252 -4.583537 -19.320166 2.3921385 253 253 253 255
-0.34539574 -0.23640373 0.0972329 -16.07626 -11.003285 4.525654 253 253 253 255
0.40780765 -0.5499902 -0.20665295 11.40412 -15.380179 -5.7789383 253 253 253 255
-0.34314695 -0.15989873 0.097279646 -17.558033 -8.181646 4.9775734 253 253 253 255
-0.24854532 -0.7865432 -0.3335362 -5.5867996 -17.679913 -7.4972243 253 253 253 255
0.13166606 -0.7919733 0.09501745 3.2572606 -19.592468 2.350618 253 253 253 255
0.071368754 -1.0744836 -0.20605956 1.3018873 -19.600407 -3.7588763 253 253 253 255
-0.0113378065 -1.0754508 -0.2049179 -0.20711006 -19.645481 -3.7432775 253 253 253 255
-0.25007194 -0.82802707 -0.33329317 -5.3955455 -17.86549 -7.1911244 253 253 253 255
0.3964033 -0.22103001 0.0929647 17.112747 -9.541875 4.01329 253 253 253 255
-0.41181442 -0.42236155 -0.2022414 -13.207562 -13.545825 -6.486212 253 253 253 255
-0.10529346 0.12773983 0.09517095 -11.028413 13.37944 9.9681835 253 253 253 255
-0.076235265 -0.9262913 -0.33446202 -1.5435812 -18.755177 -6.7720532 253 253 253 255
-0.03847842 -0.9396144 -0.33497244 -0.7708945 -18.824673 -6.710994 253 253 253 255
0.4059724 0.010817186 0.09229975 19.495731 0.5194663 4.432447 253 253 253 255
0.40723458 0.11393149 0.09227925 18.8176 5.264575 4.2640634 253 253 253 255
-0.065637864 -0.9660105 -0.3352253 -1.2812049 -18.855846 -6.543362 253 253 253 255
-0.34021607 -0.052378178 0.09624755 -19.036955 -2.9308465 5.385578 253 253 253 255
0.04407645 -0.54418314 0.09369505 1.591361 -19.647495 3.3828192 253 253 253 255
-0.10304701 -0.955213 -0.3346341 -2.0257638 -18.778187 -6.57845 253 253 253 255
-0.14251556 -0.945292 -0.3343963 -2.814364 -18.667406 -6.60358 253 253 253 255
-0.18166514 1.0188016 -0.2030565 -3.4451807 19.321018 -3.850856 253 253 253 255
-0.21968783 1.0196174 -0.20321181 -4.1348042 19.190493 -3.824704 253 253 253 255
-0.067703165 0.13187496 0.09442155 -7.704225 15.006599 10.744621 253 253 253 255
-0.36389324 -0.8361161 -0.27501154 -7.641293 -17.55737 -5.7748914 253 253 253 255
0.07812769 0.16205375 0.09336225 7.7092104 15.990573 9.212473 253 253 253 255
-0.37817925 0.7862113 -0.2011063 -8.447947 17.56276 -4.4924073 253 253 253 255
-0.16367254 -0.9062125 -0.33383027 -3.3419044 -18.503262 -6.816225 253 253 253 255
0.40700027 0.051329184 0.09128814 19.369032 2.4427419 4.344378 253 253 253 255
0.24935466 1.0928564 0.09170925 4.4342003 19.433945 1.6308389 253 253 253 255
-0.25302407 -0.8764371 -0.3332774 -5.2105246 -18.048468 -6.86318 253 253 253 255
-0.39260444 -0.57585347 -0.2749837 -10.480063 -15.371656 -7.340331 253 253 253 255
-0.22064932 -0.9204897 -0.33394548 -4.3965144 -18.34108 -6.6539807 253 253 253 255
0.025225174 -0.82856333 0.0928744 0.60482323 -19.866438 2.2268467 253 253 253 255
0.10164878 -0.8156915 0.0924047 2.4577236 -19.722267 2.2342153 253 253 253 255
0.18721762 -0.784342 0.09239555 4.613246 -19.327042 2.276727 253 253 253 255
0.31275222 -0.15146482 -0.20607054 15.482566 -7.498153 -10.201368 253 253 253 255
0.30610847 -0.72396743 0.09125545 7.736831 -18.298134 2.3064635 253 253 253 255
0.33677447 -0.7468762 0.0917328 8.170048 -18.118992 2.22541 253 253 253 255
0.1564175 -0.23795408 0.0921598 10.452133 -15.900573 6.1583037 253 253 253 255
-0.16301955 0.20800859 0.0945437 -11.61603 14.821742 6.7367525 253 253 253 255
-0.27143735 1.091556 0.0950422 -4.809278 19.33999 1.6839406 253 253 253 255
-0.22961482 1.0956371 0.09438015 -4.087817 19.50555 1.6802433 253 253 253 255
0.076287344 0.122592114 0.09246936 8.898463 14.299638 10.785998 253 253 253 255
-0.18945986 -0.94293016 -0.33436307 -3.7213235 -18.5208 -6.5674763 253 253 253 255
0.3517929 0.19144933 0.091137156 17.12922 9.3218975 4.4375772 253 253 253 255
0.3161679 0.29531014 0.09069755 14.3050585 13.361345 4.1036224 253 253 253 255
0.2992253 0.42822236 0.09045735 11.28765 16.153795 3.4123147 253 253 253 255
0.2851059 0.47753924 0.091545 10.116284 16.94431 3.2482502 253 253 253 255
0.39444888 0.765976 0.088287 9.108776 17.688234 2.03876 253 253 253 255
0.37259758 0.95559937 0.0899094 7.237693 18.562477 1.7464864 253 253 253 255
0.15483965 -0.436882 -0.2056758 6.1069474 -17.23083 -8.11195 253 253 253 255
-0.39996117 -0.29306924 0.095171444 -15.84343 -11.609181 3.7699711 253 253 253 255
-0.24999242 -0.28981173 0.093527645 -12.690033 -14.711328 4.7476196 253 253 253 255
-0.40790844 0.043919664 0.09418435 -19.38092 2.0867515 4.474973 253 253 253 255
0.06426693 -0.82894117 0.091569446 1.5366482 -19.820316 2.1894624 253 253 253 255
0.24198025 -0.76514035 0.0910652 5.992259 -18.947493 2.255086 253 253 253 255
0.27025497 -0.7368092 0.090561055 6.8417506 -18.652996 2.2926357 253 253 253 255
0.28094947 -0.25748068 0.09015899 14.348471 -13.149889 4.6045423 253 253 253 255
-0.4079236 -0.021855135 -0.2011934 -17.9163 -0.95989335 -8.83656 253 253 253 255
-0.28301653 -0.80147237 -0.33316478 -6.200128 -17.558096 -7.298741 253 253 253 255
-0.31585923 0.74833125 -0.27551612 -7.3651285 17.449406 -6.4244175 253 253 253 255
0.40455827 0.55641335 0.0892448 11.663684 16.041765 2.5729868 253 253 253 255
0.40073723 0.6588361 0.089758046 10.323687 16.972763 2.3123233 253 253 253 255
-0.28540006 -0.7389893 0.09365385 -7.1555505 -18.527939 2.3480892 253 253 253 255
-0.02921945 -0.55474246 0.091344595 -1.038044 -19.707659 3.245088 253 253 253 255
-0.39966747 -0.33077705 0.0936739 -15.16237 -12.5488405 3.55375 253 253 253 255
-0.4079856 -0.0021615857 0.093190305 -19.49757 -0.10330185 4.4535503 253 253 253 255
-0.30595255 -0.89825594 -0.33342037 -6.0837464 -17.861465 -6.6299324 253 253 253 255
-0.40825516 0.08151021 0.09368219 -19.13443 3.8202863 4.390773 253 253 253 255
-0.3613207 -0.8698327 -0.33259627 -7.234443 -17.41598 -6.659316 253 253 253 255
-0.41250202 0.52719176 -0.19984856 -11.809552 15.093015 -5.7214804 253 253 253 255
-0.34133267 -0.9116273 -0.33341986 -6.634573 -17.719538 -6.4807696 253 253 253 255
-0.3440546 -0.75714517 -0.27588904 -7.8531785 -17.282127 -6.297273 253 253 253 255
-0.4061778 0.23672517 -0.20085624 -15.890025 9.260893 -7.857669 253 253 253 255
-0.30921572 -0.76791805 0.09212645 -7.424624 -18.438593 2.2120616 253 253 253 255
-0.045319278 -0.84329796 0.090594046 -1.0671393 -19.857254 2.1332307 253 253 253 255
0.30535623 -0.22615291 -0.20551276 14.136897 -10.470069 -9.5145035 253 253 253 255
-0.38660783 -0.89834666 -0.33315325 -7.4837646 -17.389751 -6.449017 253 253 253 255
0.30639407 -0.29283962 -0.20535539 13.011472 -12.4358635 -8.720716 253 253 253 255
-0.40793672 -0.046246935 0.092195146 -19.389805 -2.1981819 4.382165 253 253 253 255
-0.2848854 -0.9305987 -0.3339721 -5.5374722 -18.088549 -6.491596 253 253 253 255
0.18420242 -0.31694627 -0.20456354 8.77573 -15.099885 -9.745771 253 253 253 255
0.13245438 -0.31128561 -0.20390351 6.706668 -15.761571 -10.3244095 253 253 253 255
-0.40466264 0.43093893 0.092617296 -13.525659 14.403932 3.0956898 253 253 253 255
-0.4108505 -0.8688159 -0.33238277 -8.080326 -17.087275 -6.537076 253 253 253 255
0.19350073 0.13233536 0.0881921 15.45128 10.567146 7.0422516 253 253 253 255
-0.11316788 -0.8386597 0.09001355 -2.6595373 -19.709185 2.1153917 253 253 253 255
-0.007048776 -0.8481369 0.08956315 -0.16529313 -19.888733 2.1002476 253 253 253 255
-0.39909297 -0.37840113 0.092175655 -14.313721 -13.571595 3.305938 253 253 253 255
-0.4318566 -0.90109736 -0.33264434 -8.201221 -17.11239 -6.3171206 253 253 253 255
-0.09702708 -0.29463375 0.0892773 -6.0117664 -18.255413 5.531593 253 253 253 255
-0.054909173 -0.30221146 0.089317 -3.4330924 -18.8952 5.5843773 253 253 253 255
0.16187997 -0.8133554 0.08875161 3.8818102 -19.503902 2.1282241 253 253 253 255
0.3803931 -0.6829152 0.08655059 9.67321 -17.366201 2.2009392 253 253 253 255
-0.05765081 -1.0711226 -0.20336615 -1.0560877 -19.621572 -3.7254026 253 253 253 255
0.22421707 -0.22641113 0.0875309 13.570424 -13.703217 5.2976847 253 253 253 255
-0.4816818 -0.88854074 -0.33202732 -9.055496 -16.704342 -6.24203 253 253 253 255
0.3657155 0.9107821 -0.2040462 7.296432 18.171118 -4.070949 253 253 253 255
-0.31518438 0.2641827 0.0915445 -14.961607 12.540589 4.345561 253 253 253 255
0.12783341 1.0174601 -0.20312369 2.445676 19.465786 -3.8861105 253 253 253 255
-0.40262607 0.5470297 0.0915901 -11.7490835 15.962948 2.672703 253 253 253 255
0.27305302 0.11442417 0.0871674 17.694845 7.4151096 5.64877 253 253 253 255
0.33402953 0.13191737 0.0857616 18.09316 7.1454825 4.6453924 253 253 253 255
0.3192104 0.25526044 0.0868453 15.278854 12.217918 4.1568084 253 253 253 255
0.4074778 0.41547275 0.086242 13.852791 14.12459 2.9319203 253 253 253 255
0.06713964 0.0648884 -0.20246975 6.022508 5.8205686 -18.161785 253 253 253 255
-0.16811298 -0.82779545 0.089498356 -3.9582927 -19.490799 2.1072774 253 253 253 255
-0.33993116 -0.08996843 0.09024995 -18.727316 -4.956495 4.9720044 253 253 253 255
-0.35070175 0.9409478 -0.2000341 -6.8502564 18.379534 -3.907266 253 253 253 255
-0.43772647 -0.93981194 -0.33297795 -8.039717 -17.261515 -6.115802 253 253 253 255
-0.38261214 0.59835875 -0.19955479 -10.372669 16.221592 -5.409959 253 253 253 255
-0.41243753 0.47884935 -0.1987915 -12.450757 14.455612 -6.0011625 253 253 253 255
0.33865896 -0.26349992 0.08527755 15.482034 -12.046084 3.898523 253 253 253 255
-0.40585253 0.09673991 -0.1988419 -17.562422 4.1862183 -8.604468 253 253 253 255
-0.24396853 0.13560869 0.090088055 -16.635979 9.2470255 6.143018 253 253 253 255
-0.34879273 0.18157457 0.09027665 -17.29031 9.000992 4.475183 253 253 253 255
-0.26822537 0.19207017 0.088741995 -15.702689 11.244345 5.1952133 253 253 253 255
-0.39479274 0.73189485 0.09001651 -9.439818 17.500206 2.1523683 253 253 253 255
-0.37460262 0.9295323 0.0898595 -7.445911 18.476152 1.7861216 253 253 253 255
0.28554732 0.17156138 0.08607795 16.598505 9.972645 5.003601 253 253 253 255
-0.358039 -0.787863 0.08945205 -8.230663 -18.111534 2.0563397 253 253 253 255
-0.32338545 -0.802798 0.089131445 -7.433622 -18.45382 2.0488536 253 253 253 255
-0.2860417 -0.2807411 0.0884156 -13.938637 -13.68034 4.308438 253 253 253 255
-0.018690173 -0.31594265 0.087322 -1.138533 -19.246002 5.319318 253 253 253 255
0.09283253 -0.3203902 -0.20291269 4.7553096 -16.411861 -10.394123 253 253 253 255
-0.4040425 0.50804263 0.08960405 -12.331982 15.50622 2.7348495 253 253 253 255
0.01875536 -0.1047105 0.31717873 1.1212556 -6.25993 18.961964 253 253 253 255
0.33837476 0.068617634 0.08524035 19.029665 3.8589475 4.793783 253 253 253 255
-0.26195014 -0.7809977 0.0880694 -6.323851 -18.854403 2.1261213 253 253 253 255
-0.07803678 -0.86184293 0.0864416 -1.7946185 -19.819878 1.9879049 253 253 253 255
-0.40149432 -0.42133665 0.088196546 -13.641347 -14.315518 2.9966044 253 253 253 255
-0.33784398 -0.01495818 0.086727306 -19.3541 -0.8569105 4.9683547 253 253 253 255
0.045658026 -0.86237365 0.0856845 1.0522442 -19.874437 1.9747025 253 253 253 255
0.13127157 -0.8385404 0.0860092 3.0775185 -19.658663 2.0163918 253 253 253 255
0.21680306 -0.8076901 0.0849989 5.1583543 -19.217218 2.0223627 253 253 253 255
0.32468754 -0.78822094 0.08454835 7.5803323 -18.402235 1.9739118 253 253 253 255
0.39704105 -0.5186257 0.083420955 12.059634 -15.752621 2.5338092 253 253 253 255
-0.4083147 -0.12602372 -0.19979939 -17.311626 -5.3431234 -8.4710455 253 253 253 255
0.24019532 -0.16943054 0.084491655 15.7071495 -11.079612 5.5251827 253 253 253 255
0.3474356 -0.22706541 0.0837151 16.411198 -10.725487 3.954302 253 253 253 255
-0.40491575 0.4695241 0.0891143 -12.928772 14.991685 2.8453782 253 253 253 255
-0.38668874 0.80854315 0.088953756 -8.586816 17.95452 1.9753081 253 253 253 255
-0.14338441 -1.0643904 -0.20074315 -2.6246364 -19.483551 -3.674582 253 253 253 255
-0.185871 -1.0628017 -0.2012713 -3.387031 -19.366886 -3.6676626 253 253 253 255
-0.30852872 -1.0407941 -0.19985235 -5.5902805 -18.858315 -3.6211565 253 253 253 255
0.18657959 0.19176851 0.08423075 13.303217 13.67319 6.0056944 253 253 253 255
0.3882096 0.8267573 -0.20370074 8.296818 17.66946 -4.353493 253 253 253 255
-0.23926727 -0.81143534 0.0870203 -5.6269035 -19.08271 2.0464764 253 253 253 255
-0.40067285 -0.4594578 0.087195545 -13.012506 -14.921645 2.831818 253 253 253 255
0.29562482 -0.7635576 0.0831213 7.1841073 -18.555546 2.019967 253 253 253 255
0.129958 -0.087451786 0.308593 7.510438 -5.05395 17.83398 253 253 253 255
0.157 -0.15358603 0.0839673 13.354068 -13.063683 7.1420693 253 253 253 255
-0.35514465 1.0422958 0.087217346 -6.430353 18.872116 1.5791829 253 253 253 255
-0.406755 0.727966 -0.1975896 -9.4926815 16.988974 -4.611265 253 253 253 255
-0.20508929 -0.8340583 0.085670255 -4.752028 -19.325577 1.9850254 253 253 253 255
-0.41537723 0.3713294 -0.19781116 -14.05129 12.561249 -6.691512 253 253 253 255
0.016606728 -0.30356988 0.08391355 1.0530857 -19.25034 5.3212266 253 253 253 255
-0.4080174 0.28021216 -0.1982889 -15.30412 10.510339 -7.4375196 253 253 253 255
-0.40519217 0.19939107 -0.1968583 -16.449945 8.094855 -7.9920316 253 253 253 255
0.40308762 -0.047769763 -0.20318079 17.760265 -2.1047623 -8.952259 253 253 253 255
0.4383603 0.53008485 -0.3377165 11.441092 13.835076 -8.814314 253 253 253 255
-0.07272244 0.5168887 0.08340924 -2.7515032 19.556837 3.155846 253 253 253 255
0.39588544 0.6439107 -0.28121617 9.8174715 15.968192 -6.9738145 253 253 253 255
-0.36962408 0.9667965 0.08632209 -7.1174755 18.616621 1.6622169 253 253 253 255
-0.363035 1.0054669 0.08577385 -6.770298 18.751116 1.5996104 253 253 253 255
-0.16265634 1.1022929 0.08343575 -2.9114697 19.730507 1.4934595 253 253 253 255
0.33953008 0.030392481 0.08221465 19.365108 1.733436 4.6891155 253 253 253 255
0.2167778 0.522845 0.0824919 7.5798697 18.28184 2.8844185 253 253 253 255
0.40967938 0.29160613 0.0807419 16.087812 11.451161 3.170676 253 253 253 255
0.27461696 -0.31306434 -0.20329896 11.85186 -13.511163 -8.773932 253 253 253 255
0.23691262 -0.30713537 -0.20245695 10.829093 -14.038923 -9.254152 253 253 253 255
0.10119002 -0.8632569 0.0829132 2.3179133 -19.77423 1.8992544 253 253 253 255
0.37067524 0.5126726 -0.3373924 10.339839 14.300797 -9.411427 253 253 253 255
0.369199 -0.7643877 0.0811175 8.659058 -17.927668 1.9024998 253 253 253 255
0.39650226 -0.55616397 0.0804289 11.530404 -16.173414 2.3388965 253 253 253 255
0.3313459 0.5165743 -0.33638972 9.468986 14.762322 -9.613125 253 253 253 255
0.4044195 -0.3352365 0.07985045 15.222827 -12.618697 3.0056648 253 253 253 255
-0.17307156 0.15109994 0.0841167 -14.147681 12.351618 6.876094 253 253 253 255
-0.39234185 0.76931274 0.08557185 -9.042099 17.729952 1.97213 253 253 253 255
0.3228962 0.21224064 0.07932576 16.371456 10.761006 4.0219674 253 253 253 255
-0.14629728 -0.86369294 0.0834619 -3.3250792 -19.630219 1.8969418 253 253 253 255
-0.025100771 -0.8806017 0.08319145 -0.56732684 -19.903334 1.8802906 253 253 253 255
-0.40790626 -0.084470786 -0.19830695 -17.682966 -3.661856 -8.596718 253 253 253 255
-0.40874803 -0.21215628 -0.1982864 -16.304247 -8.462543 -7.909298 253 253 253 255
0.18043123 -0.8450476 0.0804847 4.1581893 -19.47483 1.8548374 253 253 253 255
-0.10527067 -1.063709 -0.20062785 -1.9358863 -19.561192 -3.6894677 253 253 253 255
-0.00440819 -0.11033294 0.275069 -0.29744402 -7.44475 18.560368 253 253 253 255
0.1876862 1.0047944 -0.2013465 3.6030629 19.289307 -3.865303 253 253 253 255
-0.24068412 0.494571 0.08352395 -8.652533 17.7797 3.002664 253 253 253 255
0.42073727 0.7366112 -0.2018899 9.649992 16.894848 -4.630529 253 253 253 255
0.41546187 0.61971474 -0.20334125 10.745081 16.027666 -5.2590094 253 253 253 255
0.41039065 0.23395486 0.07874395 17.138485 9.770282 3.2884572 253 253 253 255
0.3947336 0.47363475 -0.20268683 12.163996 14.59539 -6.2459383 253 253 253 255
0.3989433 0.7275671 0.0787616 9.572788 17.458233 1.8899131 253 253 253 255
0.12312793 0.28932735 -0.33555096 5.355094 12.583457 -14.59382 253 253 253 255
-0.3197492 -0.32966107 0.05214375 -13.835771 -14.264662 2.2562962 253 253 253 255
0.321474 -0.6653186 0.043937754 8.68591 -17.976252 1.1871548 253 253 253 255
-0.3331196 -0.6775001 0.03718815 -8.814059 -17.926075 0.98396665 253 253 253 255
0.32916772 -0.33163106 0.035847303 14.048038 -14.153167 1.5298712 253 253 253 255
0.34314486 -0.6926982 0.02514315 8.8731985 -17.91211 0.6501632 253 253 253 255
0.3700846 0.646147 0.0294612 9.932369 17.341362 0.7906828 253 253 253 255
0.18310058 0.18848972 -0.3358409 8.5875845 8.840341 -15.751246 253 253 253 255
0.3720647 -0.35181051 0.055566102 14.447335 -13.660861 2.157641 253 253 253 255
-0.29403687 0.16669877 0.0609153 -17.12262 9.707353 3.547274 253 253 253 255
-0.30284488 -0.70687765 0.03807595 -7.866493 -18.361374 0.98903507 253 253 253 255
0.38133565 0.5813399 0.02539425 10.962427 16.71204 0.7300199 253 253 253 255
0.18986398 0.15150961 -0.33553985 9.166973 7.3151555 -16.200464 253 253 253 255
-0.39446428 -0.67376375 0.0286784 -10.098034 -17.24792 0.7341487 253 253 253 255
0.051555432 -0.3242372 0.0806854 3.0498984 -19.181112 4.773159 253 253 253 255
-0.2369303 1.056738 -0.1985977 -4.303785 19.195402 -3.6074815 253 253 253 255
-0.2495985 0.9968981 -0.1988856 -4.7690725 19.047709 -3.8001025 253 253 253 255
-0.38312137 0.22405358 0.069498554 -17.056614 9.9748955 3.0940852 253 253 253 255
0.13683984 0.23489177 -0.33555096 6.337389 10.878416 -15.540191 253 253 253 255
-0.3871563 0.63906664 -0.27739525 -9.71507 16.03636 -6.9607916 253 253 253 255
0.14547823 0.19579361 -0.33529612 7.0171638 9.444134 -16.173056 253 253 253 255
0.15267701 -0.21959855 0.039002698 11.297404 -16.24929 2.8860223 253 253 253 255
-0.4065376 0.059213065 -0.1968329 -17.848364 2.5996523 -8.641624 253 253 253 255
0.15274024 0.15878306 -0.33505866 7.617851 7.9192333 -16.7109 253 253 253 255
-0.38345242 0.22022533 0.03150035 -17.299364 9.935412 1.4211309 253 253 253 255
0.37532786 0.6848982 0.026421899 9.606008 17.529041 0.6762327 253 253 253 255
0.22571339 0.13980542 -0.33637908 10.534165 6.5247946 -15.698994 253 253 253 255
0.34262004 0.56366354 0.0251495 10.380786 17.078014 0.7619857 253 253 253 255
0.13843775 -0.17227289 0.024857 12.449555 -15.492312 2.2353628 253 253 253 255
0.24042556 -0.14242703 0.021824948 17.155075 -10.16259 1.5572748 253 253 253 255
0.2749073 -0.1852218 -0.20209411 14.162054 -9.541841 -10.411029 253 253 253 255
0.38359183 -0.3569891 0.01548955 14.634307 -13.619393 0.5909376 253 253 253 255
-0.34193406 -0.83523226 0.08314555 -7.545415 -18.430962 1.8347623 253 253 253 255
-0.3999262 -0.5226225 0.08319795 -12.058268 -15.757712 2.5085208 253 253 253 255
0.20671043 0.10740236 -0.3356247 10.119366 5.257808 -16.430273 253 253 253 255
0.015537928 -0.8875891 0.081337854 0.34860152 -19.913523 1.824857 253 253 253 255
0.23635983 0.051493723 -0.3360694 11.416212 2.4871535 -16.232197 253 253 253 255
-0.12866163 0.19783853 0.08131715 -10.30891 15.851655 6.515472 253 253 253 255
-0.021445844 0.48671055 0.0815733 -0.8683145 19.706284 3.3027978 253 253 253 255
0.20290089 0.069564216 -0.33545795 10.19165 3.4941897 -16.849953 253 253 253 255
0.23749878 0.12377433 0.0785505 17.018997 8.869582 5.6288743 253 253 253 255
0.39341548 0.8040449 0.0777892 8.7570915 17.89735 1.731521 253 253 253 255
0.17811865 0.041019868 -0.3351823 9.330955 2.1488738 -17.55892 253 253 253 255
-0.11181903 -0.8813254 0.0814387 -2.506828 -19.758099 1.8257432 253 253 253 255
0.16595799 0.07983206 -0.3352463 8.67757 4.174239 -17.529276 253 253 253 255
-0.40722367 0.016174816 -0.1973233 -17.98685 0.7144329 -8.715664 253 253 253 255
-0.40953735 -0.2951082 -0.19777136 -15.1079855 -10.886651 -7.2958593 253 253 253 255
0.26797417 -0.7892743 0.07806765 6.4018826 -18.855703 1.8650303 253 253 253 255
0.35217172 -0.81394476 0.078252696 7.911202 -18.284494 1.7578722 253 253 253 255
0.40729034 -0.28832582 0.07682585 16.133652 -11.421208 3.043238 253 253 253 255
-0.20410165 1.1167812 -0.33308905 -3.4501865 18.878357 -5.6306224 253 253 253 255
0.19604956 -0.15340725 0.07870855 15.018188 -11.751615 6.029393 253 253 253 255
-0.2706898 1.1173357 -0.3325921 -4.5235605 18.672058 -5.558024 253 253 253 255
0.411688 -0.045644064 0.0757682 19.553753 -2.167935 3.598727 253 253 253 255
-0.31083724 1.1192833 -0.33209428 -5.145541 18.528404 -5.4974265 253 253 253 255
-0.02000684 -0.1078568 0.31746522 -1.1912974 -6.4222803 18.90331 253 253 253 255
-0.3533682 0.43510345 -0.33188078 -10.84941 13.358914 -10.189685 253 253 253 255
-0.40296856 0.60615575 0.0830852 -11.000961 16.547932 2.2682092 253 253 253 255
-0.040126547 1.099419 0.07962475 -0.7275703 19.934547 1.4437475 253 253 253 255
0.12540089 0.18300205 0.079636805 10.640466 15.528014 6.757309 253 253 253 255
0.22160664 0.821754 -0.20158155 5.067283 18.790321 -4.609387 253 253 253 255
0.104896456 0.5121657 0.07923375 3.9675837 19.37206 2.9969225 253 253 253 255
0.40544719 0.60945135 0.07723235 11.0167 16.559847 2.0985363 253 253 253 255
0.35553312 1.0553166 0.0775104 6.369903 18.90756 1.3887137 253 253 253 255
-0.39880076 -0.56076264 0.081695 -11.510339 -16.184944 2.3579118 253 253 253 255
0.23558791 -0.03511973 -0.33580062 11.4446335 -1.7060826 -16.312868 253 253 253 255
0.40521926 -0.40591887 0.074853405 14.011118 -14.035309 2.5881789 253 253 253 255
0.34651658 -0.12551463 0.0767091 18.409872 -6.6683917 4.075432 253 253 253 255
0.25612673 -0.06793092 -0.33612436 11.968176 -3.1742463 -15.70627 253 253 253 255
-0.31428105 0.3006899 0.081034 -14.206707 13.592337 3.6630468 253 253 253 255
-0.41004127 0.31840724 -0.19634014 -14.775268 11.473363 -7.0748444 253 253 253 255
0.13315699 0.12148246 0.07759265 13.570962 12.381129 7.908011 253 253 253 255
-0.33021706 0.19732387 -0.19635451 -15.291471 9.137542 -9.092653 253 253 253 255
-0.40741768 0.15744911 -0.19633855 -17.01536 6.5756917 -8.199867 253 253 253 255
0.38231632 0.9074111 0.07585045 7.74249 18.37646 1.5360874 253 253 253 255
0.25581056 -0.10598222 -0.33606866 11.749352 -4.8677526 -15.435599 253 253 253 255
-0.18670772 -0.28553465 0.0792583 -10.661545 -16.304844 4.5258756 253 253 253 255
0.016528388 -1.0208982 0.07849925 0.32280588 -19.93854 1.533121 253 253 253 255
0.08217538 -0.89516145 0.077310756 1.8215783 -19.843008 1.7137444 253 253 253 255
0.21846662 -0.84521973 0.076641604 4.985802 -19.289438 1.7490995 253 253 253 255
0.4107832 -0.13976352 0.0757853 18.65174 -6.346006 3.441055 253 253 253 255
0.29371536 -0.05178002 0.2750543 14.478898 -2.5525315 13.558988 253 253 253 255
0.23861918 -0.1415014 -0.33560675 10.960326 -6.4994826 -15.415187 253 253 253 255
0.2703972 -0.16247502 -0.33636895 11.727152 -7.0465565 -14.588351 253 253 253 255
0.24771285 0.48875135 0.0752909 8.95742 17.67349 2.7225566 253 253 253 255
0.28890508 -0.25971153 -0.2012074 13.207282 -11.872701 -9.198187 253 253 253 255
-0.28625873 -0.80907434 0.079882145 -6.6422596 -18.77351 1.8535607 253 253 253 255
-0.41088083 -0.18883878 0.07923115 -17.899918 -8.226713 3.4516845 253 253 253 255
0.15440583 -0.8770251 0.0759375 3.4552534 -19.62584 1.6993095 253 253 253 255
0.1961565 -0.24453777 -0.20098095 10.53519 -13.133654 -10.794301 253 253 253 255
0.4107517 -0.19185922 0.07379155 17.885324 -8.354108 3.2130985 253 253 253 255
0.35296437 -0.16278736 0.074670695 17.835396 -8.225695 3.7731333 253 253 253 255
0.24414723 -0.19042899 -0.33623293 10.682871 -8.332383 -14.71216 253 253 253 255
-0.31283033 0.33867097 0.07901985 -13.3755045 14.48036 3.3786063 253 253 253 255
-0.34062392 1.0759763 0.07861705 -6.021601 19.021273 1.3898041 253 253 253 255
0.41211665 0.18575813 0.074238054 17.992352 8.109901 3.2411137 253 253 253 255
0.19780725 1.0996536 0.0755494 3.532732 19.639227 1.349272 253 253 253 255
0.18102004 -0.2791806 -0.20087829 9.314912 -14.36605 -10.336779 253 253 253 255
-0.39760783 -0.6303227 0.07669515 -10.614385 -16.826849 2.047424 253 253 253 255
0.24233231 -0.22838889 -0.33635783 10.239883 -9.650696 -14.212982 253 253 253 255
0.25037947 -0.82276696 0.074561596 5.8008785 -19.062153 1.7274691 253 253 253 255
0.30039018 -0.81930476 0.07459615 6.85964 -18.709452 1.7034602 253 253 253 255
0.3847254 -0.73077446 0.07365655 9.280127 -17.627325 1.7767012 253 253 253 255
0.39681938 -0.6072818 0.07343271 10.884545 -16.657417 2.01422 253 253 253 255
0.2616099 -0.31000006 0.07404875 12.689085 -15.036195 3.5916493 253 253 253 255
0.20839307 -0.2017735 -0.33568633 9.394476 -9.096061 -15.132927 253 253 253 255
-0.4117268 0.13280888 0.07869885 -18.726917 6.0406575 3.5795262 253 253 253 255
-0.4002005 0.68362886 0.079057746 -10.054155 17.174667 1.9861515 253 253 253 255
-0.38592073 0.857582 0.0784427 -8.179046 18.175241 1.6624825 253 253 253 255
-0.38878387 -0.7789212 -0.19585174 -8.714033 -17.458403 -4.389736 253 253 253 255
0.4122429 0.14617653 0.0732419 18.591196 6.5922217 3.3030393 253 253 253 255
0.32661188 -0.8539662 0.0728072 7.122024 -18.621391 1.5876174 253 253 253 255
0.41027692 -0.6919439 -0.28384617 9.619139 -16.222958 -6.65491 253 253 253 255
0.3060782 -0.3494938 -0.3366534 10.669777 -12.183231 -11.735619 253 253 253 255
-0.29707158 0.44891512 0.07690245 -10.926287 16.511087 2.8284705 253 253 253 255
0.45084065 -0.5055954 -0.33770582 11.91249 -13.359267 -8.923147 253 253 253 255
-0.3338136 -0.8712965 0.07680114 -7.1311765 -18.613289 1.6406835 253 253 253 255
0.3219434 -0.38502547 -0.33689326 10.652013 -12.739184 -11.146652 253 253 253 255
0.048171423 -0.2859638 0.07390519 3.2193475 -19.111265 4.939163 253 253 253 255
0.28179643 -0.37806863 -0.3361446 9.732488 -13.05747 -11.609528 253 253 253 255
0.23757817 -0.18144174 -0.20048828 13.200823 -10.081651 -11.1399555 253 253 253 255
0.04785275 0.49049506 0.0731139 1.9209573 19.689987 2.9350176 253 253 253 255
-0.4029986 0.6432227 0.07608095 -10.565683 16.863798 1.9946648 253 253 253 255
0.2679307 -0.22587168 -0.20045696 13.273173 -11.1895895 -9.930554 253 253 253 255
0.41316482 0.08300173 0.07024315 19.3414 3.885543 3.2882783 253 253 253 255
0.1510317 0.51375717 0.071979694 5.590527 19.017021 2.6643705 253 253 253 255
0.22734451 -0.21788608 -0.19984074 12.191492 -11.684278 -10.716585 253 253 253 255
0.4101364 0.4508687 0.071219854 13.367104 14.694645 2.3211868 253 253 253 255
0.31888944 -0.4269172 -0.3366158 10.118899 -13.546802 -10.681387 253 253 253 255
0.19208206 -0.20471512 -0.1995739 11.153548 -11.887107 -11.588574 253 253 253 255
0.04834678 -0.9236577 0.072652355 1.0422134 -19.911325 1.5661695 253 253 253 255
0.12766123 -0.90445006 0.072189145 2.786562 -19.742144 1.5757293 253 253 253 255
0.13866973 -0.30500862 0.072042905 8.092555 -17.79984 4.2043147 253 253 253 255
0.3507 -0.44739163 -0.33706975 10.61308 -13.539217 -10.200595 253 253 253 255
0.21582301 -0.28015906 0.0714001 11.96404 -15.5304785 3.9580288 253 253 253 255
0.11953346 -0.20329648 -0.1993927 7.741085 -13.165647 -12.912835 253 253 253 255
0.40439236 -0.48251265 0.0708678 12.766105 -15.232253 2.2371979 253 253 253 255
0.15482447 -0.21596839 -0.19997364 9.310806 -12.987868 -12.02598 253 253 253 255
-0.13819093 0.14090504 0.0743868 -13.104059 13.361428 7.0537853 253 253 253 255
0.38506785 -0.50809634 -0.33728987 10.67777 -14.089299 -9.352906 253 253 253 255
-0.1987501 1.100136 0.07317475 -3.5480409 19.639374 1.3062989 253 253 253 255
0.35216603 -0.48905823 -0.33712673 10.199644 -14.164399 -9.764069 253 253 253 255
0.41126955 0.37465763 0.069721304 14.670152 13.36419 2.486987 253 253 253 255
-0.23334149 -0.86890936 0.073882446 -5.169719 -19.250834 1.636878 253 253 253 255
-0.15992987 -0.90544575 0.073546 -3.4676964 -19.632425 1.5946691 253 253 253 255
-0.12258072 -0.9172412 0.0730981 -2.641034 -19.762201 1.5749178 253 253 253 255
0.31885946 -0.46849245 -0.33652326 9.675695 -14.216264 -10.211698 253 253 253 255
-0.33598655 -0.13129428 0.07272835 -18.260777 -7.1358075 3.9527655 253 253 253 255
0.28529668 -0.44390365 -0.33600807 9.121079 -14.191825 -10.742349 253 253 253 255
0.09191627 -0.14336343 0.071248904 9.958289 -15.532122 7.7191696 253 253 253 255
0.30319387 -0.50360394 -0.33634698 8.953626 -14.87194 -9.932672 253 253 253 255
0.15304737 -0.25342926 -0.19895326 8.581381 -14.209803 -11.155329 253 253 253 255
-0.38247275 0.89543957 0.0734153 -7.8338094 18.3404 1.5036927 253 253 253 255
0.06703385 1.0996392 0.0714151 1.2143893 19.92113 1.2937603 253 253 253 255
0.22221118 0.18610631 0.07049525 14.898499 12.47779 4.726465 253 253 253 255
0.41167304 0.32954943 0.069724 15.478757 12.390939 2.621597 253 253 253 255
-0.29565126 -0.8555922 0.073298894 -6.5107355 -18.84157 1.6141642 253 253 253 255
-0.2028962 -0.89523405 0.07243715 -4.4069924 -19.44487 1.5733662 253 253 253 255
-0.067267716 -0.93013257 0.07217839 -1.4383419 -19.88842 1.5433437 253 253 253 255
-0.02712272 -0.93708956 0.071145795 -0.5769701 -19.934307 1.5134542 253 253 253 255
-0.41264185 -0.15116493 0.073238194 -18.52406 -6.7860017 3.2877634 253 253 253 255
0.24208553 -1.0358002 -0.1997433 4.473517 -19.140629 -3.6910713 253 253 253 255
0.011020332 -0.9359092 0.07106315 0.23480791 -19.941221 1.5141277 253 253 253 255
0.24251612 -0.2664706 -0.33611357 9.843568 -10.8158655 -13.642626 253 253 253 255
0.396189 -0.65383255 0.067942195 10.323946 -17.037657 1.7704465 253 253 253 255
0.27158964 -0.29078543 -0.3362958 10.426263 -11.163185 -12.910318 253 253 253 255
-0.40258563 -0.8631065 -0.1957505 -8.281191 -17.75411 -4.02659 253 253 253 255
0.20824195 -0.24534486 -0.33552107 8.958546 -10.5547085 -14.434078 253 253 253 255
-0.2607475 -0.8416916 0.072123945 -5.898585 -19.040604 1.6315757 253 253 253 255
-0.13115962 -0.2856065 0.071390405 -8.139243 -17.7236 4.4302034 253 253 253 255
0.27171242 -0.32986528 -0.33603314 9.995831 -12.135172 -12.362079 253 253 253 255
0.23828323 -0.31129587 -0.33559844 9.234841 -12.0645 -13.006364 253 253 253 255
0.25527593 -0.2735501 0.06785365 13.426299 -14.387435 3.5687795 253 253 253 255
-0.3354558 0.13466632 0.07210814 -18.201668 7.306929 3.9125526 253 253 253 255
-0.29794502 0.12937321 0.0719458 -17.911089 7.7773247 4.325052 253 253 253 255
-0.4111907 0.28555605 0.0721772 -16.259153 11.291352 2.8540044 253 253 253 255
0.24590237 -0.3588478 -0.33568084 8.950469 -13.061509 -12.218267 253 253 253 255
-0.30696148 0.412948 0.072367795 -11.815204 15.894713 2.7854967 253 253 253 255
-0.40641123 0.684031 -0.19490725 -9.922381 16.700367 -4.758589 253 253 253 255
-0.28692925 0.47470373 -0.1956737 -9.756448 16.14134 -6.653488 253 253 253 255
0.3316814 0.16511223 0.0672729 17.616217 8.769418 3.572989 253 253 253 255
0.38227242 0.5082912 -0.28561014 10.966189 14.581267 -8.193253 253 253 253 255
0.40970525 0.52553105 0.066713855 12.235569 15.694628 1.9923638 253 253 253 255
0.3298644 1.0839268 0.067676745 5.8124466 19.099566 1.1925126 253 253 253 255
0.26322877 -0.4115002 -0.33582488 8.881011 -13.883504 -11.330313 253 253 253 255
-0.33188403 -0.26228738 0.071716554 -15.470603 -12.226391 3.34303 253 253 253 255
-0.33537185 0.046497222 0.0712033 -19.386452 2.6878107 4.1159663 253 253 253 255
0.18666583 -0.89753085 0.0680224 4.061234 -19.527317 1.4799435 253 253 253 255
-0.3354099 0.09308622 0.071698055 -18.875341 5.2384686 4.0348396 253 253 253 255
-0.3119741 0.23227362 0.07152655 -15.777465 11.746773 3.617312 253 253 253 255
-0.06731201 0.1598898 0.0689151 -7.2119493 17.130926 7.383708 253 253 253 255
-0.31198537 0.37568378 0.070509695 -12.646315 15.228328 2.8581076 253 253 253 255
0.015628804 1.103124 0.06825495 0.2827862 19.95983 1.2349991 253 253 253 255
-0.34040546 -0.20917083 0.070473954 -16.781021 -10.311525 3.474165 253 253 253 255
0.08542582 -0.2822279 0.067377605 5.648493 -18.661364 4.4551163 253 253 253 255
0.15717508 -0.27207667 0.06689604 9.785066 -16.93836 4.164669 253 253 253 255
0.18941236 -0.111131646 0.27594432 10.741774 -6.302392 15.649094 253 253 253 255
-0.38824165 -0.77030015 0.069649495 -8.97237 -17.801846 1.6096189 253 253 253 255
-0.22258933 -0.2813728 0.0689952 -12.185158 -15.403125 3.7769887 253 253 253 255
-0.017101524 -0.27954763 0.067634456 -1.1871068 -19.404871 4.694863 253 253 253 255
0.28542432 -0.43208936 -0.19835639 10.29411 -15.583732 -7.15392 253 253 253 255
0.36689878 -0.8496056 0.064659104 7.9098673 -18.31641 1.3939674 253 253 253 255
0.3817232 -0.7957171 0.06405465 8.627856 -17.985107 1.4477879 253 253 253 255
0.4104597 -0.3686748 0.06331404 14.782178 -13.2773485 2.2801738 253 253 253 255
-0.097107664 0.18286328 0.067109704 -8.923185 16.803238 6.1666846 253 253 253 255
0.23194169 -0.26575458 -0.1994655 11.447494 -13.116331 -9.84463 253 253 253 255
0.35074785 -0.74441886 -0.28625405 8.051346 -17.087982 -6.5709023 253 253 253 255
-0.30348846 -0.89318764 0.06812605 -6.417629 -18.887526 1.4406073 253 253 253 255
-0.3984997 -0.6850186 0.06747225 -10.020552 -17.22527 1.6966368 253 253 253 255
0.38691264 -0.72157794 -0.286349 8.921269 -16.63784 -6.6025143 253 253 253 255
0.07584628 -0.94838107 0.06556659 1.5906262 -19.889174 1.3750436 253 253 253 255
0.11244758 -0.9395928 0.06520324 2.370958 -19.811321 1.3748109 253 253 253 255
0.22328156 -0.888244 0.06526355 4.8634624 -19.347504 1.421554 253 253 253 255
0.24788699 -0.43153208 -0.1985149 9.253057 -16.10811 -7.410109 253 253 253 255
0.45243028 -0.54526556 -0.33748114 11.529915 -13.895768 -8.600506 253 253 253 255
0.41412863 -0.10440811 0.06325865 19.183867 -4.8365436 2.930359 253 253 253 255
0.4189993 -0.5266961 -0.337257 11.131721 -13.992944 -8.960039 253 253 253 255
-0.33713877 -0.91090155 0.06682765 -6.9257097 -18.712292 1.3728142 253 253 253 255
-0.4097641 -0.33732477 -0.19476484 -14.495778 -11.93317 -6.889983 253 253 253 255
0.41264609 -0.5733959 -0.33707085 10.543677 -14.651059 -8.612626 253 253 253 255
0.325462 -0.8964796 0.0637469 6.809839 -18.757587 1.333815 253 253 253 255
-0.30778572 1.0900034 0.06689775 -5.425455 19.2139 1.1792318 253 253 253 255
-0.076616794 1.102355 0.0643657 -1.3843648 19.918106 1.1630036 253 253 253 255
0.31390545 0.38159338 0.062865004 12.604151 15.322004 2.5241995 253 253 253 255
0.29840404 0.45617527 0.06295885 10.876168 16.626583 2.2947116 253 253 253 255
0.38939643 0.8684008 0.062307846 8.165619 18.210312 1.3065917 253 253 253 255
0.44964778 -0.58266574 -0.33757144 11.106334 -14.391888 -8.338039 253 253 253 255
-0.11128922 -0.95299906 0.06507515 -2.3144767 -19.819475 1.3533647 253 253 253 255
0.041360684 -0.96331054 0.0637054 0.8560627 -19.93812 1.3185424 253 253 253 255
0.15914267 -0.92941725 0.0633737 3.3678465 -19.668732 1.3411417 253 253 253 255
0.29363677 -0.87600535 0.06197455 6.3421464 -18.920502 1.3385643 253 253 253 255
0.37082735 0.61638236 -0.28608435 9.580436 15.924424 -7.391075 253 253 253 255
0.12480617 -0.16390738 0.0636812 11.575806 -15.202454 5.9064484 253 253 253 255
0.41504928 -0.010291263 0.060105097 19.787573 -0.4906384 2.8655248 253 253 253 255
-0.37556672 0.532586 -0.19409356 -11.046432 15.664794 -5.708816 253 253 253 255
0.42295906 -0.6095911 -0.33755168 10.377708 -14.956906 -8.282157 253 253 253 255
-0.13055529 1.1050439 0.06422245 -2.342679 19.828863 1.152405 253 253 253 255
0.1074362 1.0977925 0.062147655 1.9449223 19.873386 1.1250618 253 253 253 255
0.30421022 0.12069898 0.06145985 18.270851 7.249175 3.6912756 253 253 253 255
0.41516572 0.028773934 0.0597361 19.749714 1.3687954 2.8416862 253 253 253 255
0.41130516 0.48786092 0.0612076 12.832524 15.221025 1.9096477 253 253 253 255
