ply
format ascii 1.0
comment Created in Blender version 4.1.1
element vertex 569
property float x
property float y
property float z
property float nx
property float ny
property float nz
property uchar red
property uchar green
property uchar blue
property uchar alpha
end_header
-0.20363462 0.15906793 0.011490606 -0.7872869 0.6149844 0.044424713 249 249 249 255
-0.2607724 -0.20288144 -0.005178213 -0.7891696 -0.61397547 -0.015670717 249 249 249 255
-0.22257891 -0.21756959 0.035206676 -0.71057665 -0.69458467 0.112396285 249 249 249 255
-0.23876595 -0.20673901 0.0043774843 -0.7559164 -0.6545214 0.013858795 249 249 249 255
-0.21599461 -0.22777425 0.06566405 -0.6735162 -0.71024764 0.2047542 249 249 249 255
0.026280392 -0.1917564 -0.07351566 0.12693363 -0.9261787 -0.35507885 249 249 249 255
0.062375143 -0.20637977 -0.033104617 0.28595853 -0.94614714 -0.15176792 249 249 249 255
-0.12601298 -0.19362363 -0.04871842 -0.5337288 -0.8200942 -0.20634717 249 249 249 255
-0.035839994 -0.20364863 -0.029216193 -0.17162105 -0.9751787 -0.13990277 249 249 249 255
-0.0557764 -0.18577427 -0.08251644 -0.26460755 -0.8813277 -0.3914644 249 249 249 255
-0.002304365 -0.2118267 -0.008095229 -0.01086998 -0.99921155 -0.038186144 249 249 249 255
-0.012183156 -0.20502539 -0.02798816 -0.05877485 -0.9890978 -0.13502243 249 249 249 255
-0.00990051 -0.15588376 -0.17736766 -0.04189077 -0.6595715 -0.7504735 249 249 249 255
-0.1693289 0.17717282 -0.04682819 -0.67864496 0.71008235 -0.18768042 249 249 249 255
-0.33521688 -0.22151823 0.05815514 -0.8256906 -0.54563344 0.14324501 249 249 249 255
-0.29452002 -0.2149083 0.033602126 -0.8043971 -0.5869606 0.09177461 249 249 249 255
-0.07832754 0.122582 0.10931995 -0.43044642 0.6736455 0.6007643 249 249 249 255
-0.18507527 -0.22917496 0.06687315 -0.61269075 -0.75868267 0.22138324 249 249 249 255
-0.15047963 -0.22298266 0.044200372 -0.5519854 -0.81793916 0.16213463 249 249 249 255
-0.05517604 -0.17824866 -0.105626754 -0.25733238 -0.8313237 -0.49262655 249 249 249 255
-0.07298449 -0.2145997 0.00896102 -0.32173282 -0.9460062 0.039502285 249 249 249 255
0.12240465 -0.1649171 -0.16603334 0.46348232 -0.62445474 -0.62868136 249 249 249 255
0.06801569 -0.18676528 -0.0943647 0.30912358 -0.84882694 -0.42887685 249 249 249 255
0.08816849 -0.17824903 -0.12264391 0.37736797 -0.7629198 -0.5249255 249 249 249 255
0.093166575 -0.16449161 -0.1640218 0.3722476 -0.65722734 -0.65535015 249 249 249 255
-0.37324148 -0.22965473 0.08712363 -0.83534324 -0.51398516 0.19498944 249 249 249 255
-0.34056967 -0.25580078 0.16405123 -0.7461486 -0.5604298 0.3594172 249 249 249 255
-0.3628868 -0.24478894 0.13251215 -0.7934574 -0.5352348 0.2897398 249 249 249 255
-0.384041 -0.24030086 0.12087486 -0.8190709 -0.51250637 0.25779822 249 249 249 255
-0.26634327 -0.19549978 -0.026716545 -0.8035203 -0.58979553 -0.08060005 249 249 249 255
-0.12254564 -0.18456598 -0.07804911 -0.52171314 -0.78575224 -0.33227825 249 249 249 255
0.14904748 -0.14534135 -0.22698975 0.48392138 -0.47188848 -0.7369813 249 249 249 255
0.13654266 -0.15141244 -0.20758948 0.4692686 -0.5203729 -0.71344167 249 249 249 255
-0.27152738 -0.20992377 0.016758524 -0.7901925 -0.6109151 0.04877025 249 249 249 255
-0.20973471 -0.20964773 0.010473914 -0.70681274 -0.70651966 0.03529741 249 249 249 255
-0.2845519 -0.20063117 -0.00982064 -0.81695265 -0.5760151 -0.028195232 249 249 249 255
-0.3246344 -0.21517466 0.037557557 -0.8296778 -0.5499284 0.09598699 249 249 249 255
-0.31359422 -0.27903354 0.23150566 -0.65417945 -0.58208346 0.48293698 249 249 249 255
-0.16822827 -0.23705088 0.08930451 -0.5532234 -0.7795485 0.29368037 249 249 249 255
0.35176367 0.17367741 -0.09478242 0.8715856 0.43033093 -0.23484805 249 249 249 255
-0.19041377 -0.20518441 -0.0054548234 -0.68010205 -0.7328586 -0.01948303 249 249 249 255
0.3101759 -0.15411966 -0.21385455 0.76199543 -0.378619 -0.52536714 249 249 249 255
0.35260317 -0.16891281 -0.17291322 0.82479537 -0.39511418 -0.40447173 249 249 249 255
0.29521227 -0.14700599 -0.23376286 0.73029816 -0.36366445 -0.57828426 249 249 249 255
0.30001584 -0.18582493 -0.1236093 0.8023429 -0.4969582 -0.33057275 249 249 249 255
0.15851063 -0.16545972 -0.16849653 0.5573155 -0.5817484 -0.5924256 249 249 249 255
-0.1707546 0.13125263 0.09073703 -0.73064446 0.5616189 0.38825607 249 249 249 255
0.15111473 -0.17924516 -0.12679687 0.56695604 -0.6724965 -0.47571963 249 249 249 255
-0.37973136 -0.26634082 0.19989796 -0.7518437 -0.5273378 0.39578515 249 249 249 255
-0.06987602 0.12812497 0.088690504 -0.40916607 0.75024873 0.51933616 249 249 249 255
0.04767849 -0.18956694 -0.08271992 0.22463016 -0.8931168 -0.38972276 249 249 249 255
0.13993464 -0.25214508 0.07503342 0.4696193 -0.84619653 0.25181144 249 249 249 255
-0.024162143 -0.19755197 -0.04957988 -0.11780281 -0.9631669 -0.24172729 249 249 249 255
-0.07881802 -0.19045737 -0.06471535 -0.3648264 -0.8815736 -0.2995491 249 249 249 255
0.019828727 -0.21527992 -0.00031956472 0.091718376 -0.995784 -0.0014781505 249 249 249 255
-0.15026611 -0.19431674 -0.043609314 -0.60231525 -0.77888465 -0.17480026 249 249 249 255
0.08064291 -0.20252159 -0.047097098 0.36160037 -0.90810096 -0.21118197 249 249 249 255
0.0980448 -0.19440867 -0.07421852 0.42621768 -0.8451281 -0.32264072 249 249 249 255
-0.36859533 -0.2537689 0.16050646 -0.77530575 -0.5337792 0.3376103 249 249 249 255
-0.3943103 -0.23224719 0.09718411 -0.84285104 -0.49643597 0.20773417 249 249 249 255
0.11201951 -0.1810046 -0.11724162 0.4609558 -0.7448268 -0.48244464 249 249 249 255
0.1251012 -0.17498048 -0.1365346 0.49102658 -0.6868047 -0.53590316 249 249 249 255
0.13960853 -0.1599141 -0.18276429 0.4983926 -0.5708821 -0.6524556 249 249 249 255
-0.17172192 -0.2526269 0.13720016 -0.51281375 -0.75442064 0.40972131 249 249 249 255
0.09274321 -0.18624672 -0.098901525 0.4025824 -0.80846536 -0.42931464 249 249 249 255
0.062326465 -0.17506427 -0.12908314 0.2754613 -0.77372324 -0.5705027 249 249 249 255
0.04451281 -0.18232395 -0.1056406 0.20668262 -0.84656966 -0.49051222 249 249 249 255
-0.14116961 -0.23572409 0.082115054 -0.49227303 -0.8219943 0.28634366 249 249 249 255
-0.20944136 -0.25785047 0.15654463 -0.5703256 -0.7021475 0.4262836 249 249 249 255
0.2625907 -0.2525916 0.06394135 0.70984745 -0.6828175 0.17284928 249 249 249 255
-0.19678143 -0.2518259 0.13763392 -0.5655145 -0.72370243 0.3955351 249 249 249 255
-0.032720692 -0.18082827 -0.100064315 -0.15637696 -0.8642048 -0.478222 249 249 249 255
-0.013555672 -0.18616098 -0.08595579 -0.06596607 -0.90591633 -0.4182872 249 249 249 255
-0.27187002 -0.21786372 0.040468507 -0.77514184 -0.621162 0.11538172 249 249 249 255
-0.23794821 -0.22392334 0.05554522 -0.71794266 -0.6756265 0.1675923 249 249 249 255
-0.21705276 -0.2473234 0.12595534 -0.616027 -0.7019396 0.35747945 249 249 249 255
-0.15649159 -0.22972126 0.065560296 -0.54796565 -0.8043843 0.22956374 249 249 249 255
-0.08818759 0.09090465 0.20246404 -0.3692722 0.3806495 0.8477877 249 249 249 255
-0.07171191 0.08452598 0.21901128 -0.29214692 0.34435016 0.8922294 249 249 249 255
0.13547912 -0.18721966 -0.10127246 0.53694844 -0.74201334 -0.40137613 249 249 249 255
-0.17417091 -0.24439144 0.11227692 -0.5435711 -0.76272297 0.35040578 249 249 249 255
0.14444785 -0.1708086 -0.15102339 0.53517985 -0.6328466 -0.5595423 249 249 249 255
-0.033307947 -0.19000432 -0.07170315 -0.16184853 -0.923261 -0.3484169 249 249 249 255
0.23993993 -0.25292268 0.06762949 0.67564636 -0.71220464 0.19043776 249 249 249 255
0.034249432 0.19574343 -0.1317205 0.14365837 0.8210408 -0.5524983 249 249 249 255
-0.078002684 -0.18289399 -0.08913334 -0.35797858 -0.8393573 -0.4090606 249 249 249 255
-0.2115606 0.16644788 -0.015259005 -0.78465843 0.6173396 -0.056594223 249 249 249 255
-0.35716337 -0.2700165 0.20880121 -0.7229486 -0.5465512 0.4226429 249 249 249 255
-0.3935187 -0.2565892 0.17179883 -0.7867073 -0.51296324 0.34345356 249 249 249 255
0.027888507 0.06775027 0.25848073 0.1038045 0.25217506 0.9620979 249 249 249 255
0.21686767 -0.25099218 0.06487434 0.641639 -0.74260217 0.19194153 249 249 249 255
-0.30846125 -0.19966482 -0.01109831 -0.8390978 -0.5431422 -0.030190349 249 249 249 255
0.37409285 0.1603001 -0.062977985 0.9083568 0.38923413 -0.1529206 249 249 249 255
0.39869562 -0.15036413 -0.2327244 0.82117486 -0.30969805 -0.47933167 249 249 249 255
0.24850196 0.22333828 -0.2439951 0.600648 0.5398255 -0.5897546 249 249 249 255
0.38633418 -0.060247254 -0.5064506 0.6038122 -0.09416206 -0.7915455 249 249 249 255
-0.2446874 -0.19359209 -0.034541115 -0.77946913 -0.6167015 -0.1100332 249 249 249 255
-0.19226375 -0.18662679 -0.06282308 -0.6986022 -0.67812014 -0.22827156 249 249 249 255
-0.077646956 -0.16700228 -0.13763566 -0.3377155 -0.7263552 -0.59862876 249 249 249 255
0.18283214 -0.25112444 0.06851035 0.57477117 -0.78946245 0.21537666 249 249 249 255
-0.40831724 -0.2660058 0.20029521 -0.7749751 -0.504872 0.3801549 249 249 249 255
0.3827715 -0.16083798 -0.19962586 0.8308693 -0.34912568 -0.4333213 249 249 249 255
0.02806507 0.18740653 -0.11097831 0.12779972 0.8533917 -0.5053611 249 249 249 255
0.051523738 0.18842316 -0.11717137 0.22619219 0.82718855 -0.5143891 249 249 249 255
-0.24406597 -0.27180746 0.3729741 -0.4674965 -0.52063406 0.7144138 249 249 249 255
-0.29388514 -0.2887083 0.4322003 -0.4921946 -0.4835246 0.72384286 249 249 249 255
-0.28796524 -0.2742984 0.38155735 -0.52249503 -0.49769747 0.6923121 249 249 249 255
0.16004325 -0.24878657 0.06385042 0.52883965 -0.8220792 0.21098444 249 249 249 255
-0.4802804 -0.26003876 0.3619847 -0.7329986 -0.3968683 0.55245703 249 249 249 255
0.041879285 0.17937917 -0.090429075 0.20408732 0.87415576 -0.44068155 249 249 249 255
-0.34301433 -0.1098309 -0.11432248 -0.9077399 -0.2906523 -0.30253863 249 249 249 255
-0.42803007 -0.124031104 -0.05843859 -0.9523342 -0.2759598 -0.13002145 249 249 249 255
-0.19153659 0.17548425 -0.053397253 -0.7222282 0.6616997 -0.20134535 249 249 249 255
0.13894868 -0.25850168 0.097394146 0.4493557 -0.8359867 0.3149697 249 249 249 255
-0.57887024 -0.21180137 0.22401401 -0.8826325 -0.32294422 0.3415654 249 249 249 255
0.6172463 0.16584009 -0.11623269 0.9501654 0.25528795 -0.17892417 249 249 249 255
0.42627138 -0.14995813 -0.07360482 0.9310601 -0.32753792 -0.16076732 249 249 249 255
0.40961045 -0.16044414 -0.040657252 0.9271665 -0.36317053 -0.092029005 249 249 249 255
-0.14114301 0.10652564 0.1504552 -0.607913 0.45881358 0.6480215 249 249 249 255
-0.12723413 0.09991497 0.16839752 -0.54486483 0.4278739 0.72114223 249 249 249 255
0.42104465 -0.07387637 -0.30627 0.8006653 -0.14048451 -0.582408 249 249 249 255
0.27983025 -0.021245759 -0.45090342 0.5268852 -0.040003095 -0.8489946 249 249 249 255
0.15935394 -0.037527956 -0.38862982 0.37788004 -0.088991 -0.9215678 249 249 249 255
-0.19172561 0.13519022 0.06635717 -0.7864057 0.5545131 0.27217886 249 249 249 255
0.23935068 -0.24511468 0.045994647 0.6924319 -0.7091071 0.13306066 249 249 249 255
-0.20178756 0.14216363 0.04501333 -0.80422854 0.56659627 0.17940158 249 249 249 255
0.24554259 0.20686075 -0.20410317 0.64540386 0.5437294 -0.5364812 249 249 249 255
0.21805662 -0.24105757 0.036895856 0.6665601 -0.73687 0.11278406 249 249 249 255
-0.012050658 0.065208 0.25791407 -0.045251787 0.2448645 0.9685007 249 249 249 255
-0.007068053 0.057819664 0.27928972 -0.024774134 0.202663 0.978935 249 249 249 255
0.33022666 0.170592 -0.10362349 0.85581654 0.44210687 -0.26855102 249 249 249 255
-0.054635487 0.12617326 0.13235459 -0.28627938 0.6611236 0.6935125 249 249 249 255
0.19455421 -0.2402878 0.037473485 0.6246957 -0.7715422 0.120323926 249 249 249 255
0.5231817 -0.14183238 -0.10731436 0.9467869 -0.25667 -0.19420373 249 249 249 255
0.22857453 0.21492292 -0.22981992 0.58772266 0.552621 -0.5909249 249 249 249 255
0.25994444 0.19963036 -0.18753825 0.6883827 0.52865946 -0.49663723 249 249 249 255
0.13078557 -0.20981866 0.13777693 0.46207568 -0.74130595 0.48677677 249 249 249 255
0.15693988 0.119420156 0.06928868 0.750812 0.57131493 0.3314822 249 249 249 255
0.17313203 -0.2427458 0.04593034 0.57389605 -0.80465114 0.15224935 249 249 249 255
0.42865357 -0.08182211 -0.28226125 0.82477593 -0.15743461 -0.5431013 249 249 249 255
-0.11639973 0.09067605 0.18703225 -0.48860845 0.38062876 0.78510094 249 249 249 255
0.37694427 -0.05872319 -0.3454287 0.73243976 -0.11410492 -0.67120194 249 249 249 255
-0.11727073 0.21455155 -0.020634063 -0.47791785 0.8743702 -0.084090784 249 249 249 255
-0.23138186 0.16687325 -0.035896823 -0.80472565 0.58037055 -0.12484601 249 249 249 255
-0.013838246 -0.054211766 -0.3153814 -0.043203175 -0.16925 -0.98462576 249 249 249 255
-0.16130638 -0.25523806 0.31600577 -0.36906725 -0.5839819 0.7230177 249 249 249 255
0.163997 0.1086547 0.09790349 0.74632066 0.494468 0.44554114 249 249 249 255
0.23547716 -0.23683743 0.022421129 0.7034838 -0.70754766 0.06698272 249 249 249 255
0.35295022 0.15080944 -0.05255288 0.9110732 0.38928562 -0.13565516 249 249 249 255
-0.215226 0.14500266 0.02622202 -0.8251381 0.5559144 0.100530565 249 249 249 255
0.008168377 0.06539197 0.24672398 0.031986 0.2560642 0.96613055 249 249 249 255
0.3745163 0.14682212 -0.043752313 0.9255545 0.36284637 -0.10812655 249 249 249 255
-0.62043613 -0.18538731 0.14677307 -0.9344386 -0.27921182 0.22105485 249 249 249 255
-0.5490274 -0.17181772 0.10517241 -0.93879825 -0.29379627 0.1798374 249 249 249 255
0.33150104 0.16012019 -0.08257275 0.87863123 0.42439273 -0.2188561 249 249 249 255
0.44031373 -0.16008244 -0.041254 0.93619275 -0.3403665 -0.087714046 249 249 249 255
0.3795101 -0.14802393 -0.06876971 0.91864336 -0.35830718 -0.16646415 249 249 249 255
-0.1604935 0.10596694 0.13810202 -0.67784977 0.44755507 0.58327866 249 249 249 255
-0.17339253 0.11174834 0.11976894 -0.72691673 0.4684847 0.50210965 249 249 249 255
0.10617639 -0.026999133 -0.4099657 0.25020856 -0.06362445 -0.96609914 249 249 249 255
-0.09493444 0.20056812 0.018653017 -0.42631948 0.9006859 0.0837646 249 249 249 255
0.6266351 0.23471728 -0.10225192 0.9257166 0.3467436 -0.15105495 249 249 249 255
0.21379453 -0.23316248 0.015675507 0.6750033 -0.7361529 0.049491525 249 249 249 255
0.2861091 0.1970492 -0.19537133 0.71784186 0.49439254 -0.4901828 249 249 249 255
-0.27819547 -0.09674783 -0.15356268 -0.83751893 -0.2912634 -0.46230686 249 249 249 255
-0.0580257 0.063779645 0.24935475 -0.2199259 0.24173425 0.94509107 249 249 249 255
0.06037797 0.16778325 -0.08261298 0.30722973 0.85375524 -0.42037126 249 249 249 255
-0.18732753 0.11638323 0.10127558 -0.7719128 0.4795756 0.41732207 249 249 249 255
0.14156286 -0.24202333 0.051656708 0.49653217 -0.8488977 0.18118605 249 249 249 255
-0.10882996 0.079204924 0.20586127 -0.44247043 0.32202387 0.8369711 249 249 249 255
0.12122686 -0.24493238 0.063811004 0.43196326 -0.87275887 0.22737548 249 249 249 255
0.41251165 -0.06495424 -0.32600576 0.77865 -0.12260653 -0.615363 249 249 249 255
-0.0868963 0.17912373 0.083767466 -0.40230942 0.82930094 0.38782373 249 249 249 255
-0.028733835 0.054147698 0.26996675 -0.10379273 0.19559295 0.9751771 249 249 249 255
-0.19914863 0.16028528 -0.037579536 -0.77073807 0.6203306 -0.145439 249 249 249 255
-0.07787239 0.0665763 0.23702246 -0.30157697 0.25783056 0.9179187 249 249 249 255
0.014927991 0.052594587 0.26983863 0.05422023 0.19102973 0.9800856 249 249 249 255
0.06373717 0.17332199 -0.104852974 0.3001363 0.81616783 -0.49374935 249 249 249 255
0.22976422 0.21651411 -0.25747314 0.563998 0.5314733 -0.63201463 249 249 249 255
-0.061295547 0.1660817 0.12079619 -0.2860034 0.774933 0.5636319 249 249 249 255
-0.49554396 -0.25416455 0.3426975 -0.7578108 -0.3886813 0.5240703 249 249 249 255
-0.06908961 0.19389702 0.03715363 -0.3303122 0.92700696 0.1776287 249 249 249 255
0.36113983 -0.2332329 0.00452815 0.8399962 -0.54249 0.01053229 249 249 249 255
0.32245457 -0.22827846 -0.00630717 0.8160718 -0.57772994 -0.015962243 249 249 249 255
-0.20532715 0.12043135 0.07916695 -0.81849545 0.48007548 0.31558317 249 249 249 255
-0.09713504 0.06991439 0.22347759 -0.3831661 0.27578956 0.88154626 249 249 249 255
0.40016934 -0.057991136 -0.344085 0.7537054 -0.10922435 -0.6480726 249 249 249 255
-0.23271576 0.14559492 0.003941022 -0.8476693 0.53033084 0.014355212 249 249 249 255
0.32238108 -0.24001056 0.03009776 0.7998754 -0.595502 0.07467705 249 249 249 255
-0.18624096 -0.26517636 0.35482803 -0.38757566 -0.5518438 0.73841286 249 249 249 255
-0.27348602 -0.27636057 0.40003604 -0.49024853 -0.49540153 0.7171009 249 249 249 255
-0.030246757 0.09364548 0.22812936 -0.12174183 0.376919 0.91821074 249 249 249 255
-0.47354597 -0.26428193 0.38446075 -0.7123604 -0.3975622 0.5783485 249 249 249 255
-0.535737 -0.24237081 0.32468897 -0.7975838 -0.36083207 0.48338407 249 249 249 255
-0.21343426 -0.08502354 -0.19263297 -0.71188015 -0.28358415 -0.6425003 249 249 249 255
0.3052495 -0.23458087 0.015549473 0.7922621 -0.60884476 0.040358007 249 249 249 255
0.016947128 0.18108043 -0.1361583 0.07459369 0.7970354 -0.5993082 249 249 249 255
0.30291885 -0.22372396 -0.017810747 0.80349684 -0.5934313 -0.047243297 249 249 249 255
0.23556748 -0.22542118 -0.0058631375 0.7223784 -0.69126433 -0.017979592 249 249 249 255
0.25714916 -0.005489994 -0.4876931 0.4663887 -0.009957138 -0.8845238 249 249 249 255
0.22728513 -0.012784218 -0.46106258 0.4420178 -0.02486239 -0.89666176 249 249 249 255
-0.22432123 0.12922229 0.045921072 -0.85319054 0.49148822 0.17465764 249 249 249 255
-0.03885816 -0.05524016 -0.30036622 -0.12621787 -0.17942943 -0.9756404 249 249 249 255
0.06891071 -0.21899468 0.18830068 0.23208113 -0.7375419 0.63416904 249 249 249 255
-0.21877109 -0.2747857 0.39009118 -0.41677174 -0.5234829 0.7431466 249 249 249 255
0.13870996 -0.26416755 0.124406956 0.4290869 -0.8171788 0.38484183 249 249 249 255
-0.3723901 -0.2871046 0.44394615 -0.57585144 -0.4439689 0.6865033 249 249 249 255
-0.020165972 0.039888747 0.2915625 -0.06836653 0.13523051 0.9884527 249 249 249 255
-0.55218756 -0.23525092 0.30544236 -0.81992555 -0.34931657 0.45354158 249 249 249 255
0.11972686 -0.25117078 0.08591825 0.4111358 -0.8625076 0.29503882 249 249 249 255
-0.1911877 -0.080376394 -0.20659634 -0.6531031 -0.27456832 -0.7057397 249 249 249 255
-0.29922983 -0.09818309 -0.14226273 -0.86590767 -0.28412107 -0.4116782 249 249 249 255
0.13430654 0.10599001 0.07251018 0.7227694 0.5703843 0.39021286 249 249 249 255
0.25815526 0.2028514 -0.23954226 0.63520074 0.49912354 -0.58940285 249 249 249 255
0.35622814 0.15246786 -0.102313906 0.88886905 0.38044155 -0.2552961 249 249 249 255
0.37110662 0.14375167 -0.079287946 0.9145128 0.35424528 -0.1953882 249 249 249 255
0.38347185 0.13536586 -0.06171958 0.9322963 0.32910138 -0.1500526 249 249 249 255
0.34199667 0.15225738 -0.12398694 0.8672278 0.38609105 -0.3144034 249 249 249 255
0.18257357 -0.019237183 -0.45307508 0.37347102 -0.039351426 -0.9268068 249 249 249 255
0.46657833 0.089240015 -0.015393898 0.9816805 0.18776096 -0.032388777 249 249 249 255
-0.18175283 0.09678458 0.13627642 -0.736061 0.3919573 0.55189097 249 249 249 255
0.25910255 -0.028469948 -0.43240237 0.51318353 -0.056388132 -0.85642457 249 249 249 255
0.048146218 -0.037506975 -0.36248 0.13098088 -0.10203699 -0.98611987 249 249 249 255
-0.15847835 0.084051974 0.17053463 -0.6402855 0.3395875 0.6889954 249 249 249 255
0.002689138 -0.047092564 -0.33005428 0.008065671 -0.14124611 -0.9899416 249 249 249 255
0.27614507 0.19504224 -0.21654814 0.68780816 0.48580143 -0.53936714 249 249 249 255
0.28584772 0.20830755 -0.25870934 0.65230167 0.4753558 -0.5903722 249 249 249 255
0.29915336 0.20198281 -0.23987472 0.6902585 0.4660498 -0.5534806 249 249 249 255
0.19135138 -0.19821323 0.0956241 0.65614533 -0.67967474 0.32789576 249 249 249 255
-0.25088367 0.15364093 -0.035654455 -0.8465979 0.5184558 -0.12031469 249 249 249 255
-0.23574331 0.13365185 0.025020868 -0.86623645 0.49110246 0.09193888 249 249 249 255
-0.25846198 -0.090939246 -0.16665624 -0.80593705 -0.28356716 -0.5196682 249 249 249 255
-0.32242623 -0.1009938 -0.12887648 -0.891621 -0.27928314 -0.35638845 249 249 249 255
0.35551512 -0.22526512 -0.016578674 0.8440511 -0.5348164 -0.039360523 249 249 249 255
-0.5894512 -0.151424 0.05568488 -0.9645229 -0.24777615 0.09111753 249 249 249 255
-0.6056266 -0.1555745 0.071666464 -0.9622542 -0.24718574 0.11386779 249 249 249 255
-0.5672162 -0.22680606 0.28353757 -0.8422228 -0.33676976 0.42100668 249 249 249 255
0.12944084 0.112071715 0.049528413 0.72623295 0.6287828 0.27788112 249 249 249 255
0.3892471 0.1549192 -0.1078866 0.8997611 0.3581023 -0.24938446 249 249 249 255
0.33587855 -0.23427087 0.012196049 0.8198356 -0.5718246 0.029768944 249 249 249 255
-0.20471919 0.18404706 -0.028673 -0.7396543 0.6649656 -0.10359606 249 249 249 255
-0.058054067 0.047757592 0.26578152 -0.2101824 0.17290442 0.9622512 249 249 249 255
0.04491075 0.17578174 -0.13588113 0.19813162 0.7754919 -0.5994633 249 249 249 255
0.22358496 -0.018659854 -0.4387391 0.45372325 -0.03786663 -0.89033777 249 249 249 255
0.26306278 0.20937106 -0.26306754 0.61621773 0.49044633 -0.6162289 249 249 249 255
0.30486274 0.2103724 -0.27154538 0.6637893 0.458052 -0.59124625 249 249 249 255
0.12471822 -0.037353847 -0.36953345 0.31832352 -0.09533979 -0.9431757 249 249 249 255
0.17145279 0.101890475 0.07597354 0.80334437 0.4774092 0.35597503 249 249 249 255
0.48240292 -0.14847103 -0.09131895 0.9404881 -0.28945768 -0.17803451 249 249 249 255
0.37005222 0.15869541 -0.12024617 0.8806224 0.37765148 -0.28615275 249 249 249 255
0.39831173 0.1463013 -0.08649795 0.9197678 0.33783397 -0.19973809 249 249 249 255
0.33633918 -0.22096673 -0.028767824 0.8336421 -0.5476829 -0.07130322 249 249 249 255
-0.19743095 0.09960875 0.119728655 -0.7851155 0.39611 0.47612 249 249 249 255
-0.14433779 0.07526935 0.19075051 -0.57558274 0.30015522 0.76066506 249 249 249 255
-0.5171807 -0.24908805 0.34877613 -0.7699709 -0.37083867 0.5192527 249 249 249 255
-0.16653106 -0.075544044 -0.22188878 -0.5791758 -0.26273355 -0.7717036 249 249 249 255
-0.23661943 -0.08604566 -0.18024154 -0.76416516 -0.2778855 -0.58209217 249 249 249 255
0.32270062 0.19974217 -0.24201557 0.7169281 0.4437574 -0.53767407 249 249 249 255
0.32632327 0.20643769 -0.26400492 0.6976256 0.44132993 -0.56439924 249 249 249 255
0.41238502 0.15187773 -0.105934545 0.91225266 0.33597454 -0.23434192 249 249 249 255
-0.15018779 0.14544715 0.08445895 -0.6660584 0.64503443 0.37456173 249 249 249 255
0.5394061 -0.10371125 -0.21260484 0.9158066 -0.17608151 -0.36096168 249 249 249 255
-0.13006055 0.06851728 0.20745996 -0.5115185 0.26947337 0.81592464 249 249 249 255
0.521328 -0.10818722 -0.19818981 0.9176281 -0.1904284 -0.34884873 249 249 249 255
0.14625034 0.09621824 0.09022781 0.7425868 0.48854864 0.45813212 249 249 249 255
0.40030816 0.16091223 -0.13319355 0.8865581 0.35637063 -0.29498237 249 249 249 255
-0.40037647 -0.12784539 -0.056757137 -0.9440448 -0.30144578 -0.13382721 249 249 249 255
0.11718161 -0.20909041 0.15655583 0.4093156 -0.7303533 0.54684985 249 249 249 255
0.30791187 0.16476044 -0.1391327 0.8190952 0.43828943 -0.37011543 249 249 249 255
-0.14514771 -0.07147574 -0.23502254 -0.5087042 -0.25050348 -0.8236916 249 249 249 255
-0.58803034 -0.21216373 0.2459998 -0.8753117 -0.31581604 0.3661826 249 249 249 255
0.4687187 -0.16177195 -0.14464942 0.90745854 -0.31319714 -0.28004715 249 249 249 255
-0.45568532 -0.17783847 0.009738684 -0.931386 -0.36348832 0.01990512 249 249 249 255
0.42231643 0.16066408 -0.14006099 0.89274234 0.33963075 -0.29607752 249 249 249 255
0.43223912 0.15378928 -0.12046389 0.91125345 0.32422113 -0.25396398 249 249 249 255
0.44317967 -0.16186792 -0.12968314 0.9057182 -0.33080652 -0.26503104 249 249 249 255
-0.24643277 -0.29173958 0.34657016 -0.47785574 -0.5657099 0.67203134 249 249 249 255
-0.51292944 -0.18452162 0.048393786 -0.93727875 -0.33717737 0.088430196 249 249 249 255
0.30303997 0.18746597 -0.21099705 0.73176616 0.45268372 -0.5095055 249 249 249 255
0.29221496 0.1704117 -0.15673302 0.7837957 0.4570881 -0.42039835 249 249 249 255
0.33248812 0.2108897 -0.28646725 0.6828462 0.43311396 -0.5883311 249 249 249 255
-0.22798134 0.11570305 0.06621788 -0.86324674 0.4381073 0.2507327 249 249 249 255
-0.004447803 0.043640643 0.26073757 -0.01682213 0.16505419 0.98614097 249 249 249 255
0.38418105 -0.15955998 -0.08878261 0.903176 -0.3751116 -0.20872018 249 249 249 255
-0.17734632 -0.2667789 0.30384773 -0.4016658 -0.6042187 0.68817466 249 249 249 255
-0.2870456 -0.28098422 0.35955018 -0.532458 -0.5212144 0.6669512 249 249 249 255
0.31072593 0.2137666 -0.29419196 0.64961123 0.4469058 -0.615045 249 249 249 255
0.34832197 0.20454808 -0.27069068 0.7163396 0.42066222 -0.55668736 249 249 249 255
0.2844842 -0.23044974 0.0061518326 0.7769307 -0.6293618 0.016800731 249 249 249 255
0.17222127 -0.05431383 -0.3791115 0.41012537 -0.12934223 -0.90281105 249 249 249 255
0.1794545 0.09146791 0.095137045 0.80560106 0.4106147 0.42708606 249 249 249 255
-0.31651226 -0.2823485 0.3729247 -0.56041944 -0.49992886 0.6603038 249 249 249 255
0.42099816 0.14223969 -0.086872995 0.9297874 0.3141408 -0.19186172 249 249 249 255
-0.26692262 0.14434773 -0.020055003 -0.8777018 0.4746479 -0.06594539 249 249 249 255
-0.51265323 -0.24802351 0.32334548 -0.7828077 -0.3787253 0.49373993 249 249 249 255
-0.53225434 -0.17249918 0.06499995 -0.9449325 -0.30624482 0.115397036 249 249 249 255
0.4601199 -0.14274287 -0.13294199 0.9206828 -0.28562322 -0.266012 249 249 249 255
0.1801028 -0.043344997 -0.40566003 0.40385863 -0.097195886 -0.90964335 249 249 249 255
0.27973768 -0.22294445 -0.016031154 0.7812365 -0.62262756 -0.044770986 249 249 249 255
-0.042061657 0.03834655 0.28021815 -0.14709944 0.13410684 0.97998834 249 249 249 255
0.033850133 0.15692456 -0.09371567 0.18210116 0.84419584 -0.50415546 249 249 249 255
0.30260468 -0.24285537 0.042005517 0.77536714 -0.62227094 0.10763118 249 249 249 255
-0.3829145 -0.12819074 -0.07809756 -0.9310191 -0.31168324 -0.18988653 249 249 249 255
0.27702504 0.21131556 -0.28428185 0.6160474 0.46992296 -0.6321851 249 249 249 255
0.15213017 0.107394315 0.04631408 0.7927951 0.5596635 0.24135628 249 249 249 255
0.33747554 -0.17069836 -0.02388969 0.8905688 -0.45045826 -0.06304285 249 249 249 255
-0.3193049 -0.28270763 0.39600384 -0.5486547 -0.48577043 0.68044484 249 249 249 255
-0.32095772 -0.11665624 -0.11213925 -0.892936 -0.32454914 -0.31198245 249 249 249 255
-0.11696133 0.05792876 0.22743472 -0.44603327 0.22091195 0.86732477 249 249 249 255
-0.34862587 -0.12233471 -0.0948735 -0.91394067 -0.32070684 -0.24871579 249 249 249 255
0.28472626 -0.23765215 0.028586127 0.7654464 -0.6388944 0.07684979 249 249 249 255
0.00086245686 0.035637356 0.28190532 0.0030352473 0.12541729 0.99209946 249 249 249 255
0.01642007 0.16578564 -0.11886953 0.08023219 0.81006616 -0.5808233 249 249 249 255
0.09753312 -0.045653038 -0.3737099 0.25078166 -0.11738521 -0.96090025 249 249 249 255
0.2837456 -0.2463258 0.05537886 0.74707466 -0.64855194 0.14580718 249 249 249 255
0.08873873 -0.21698263 0.1517458 0.31777063 -0.7770081 0.543397 249 249 249 255
0.06933808 -0.22088072 0.16530243 0.24374814 -0.7764747 0.5810971 249 249 249 255
-0.2807323 -0.10971456 -0.1344319 -0.8506264 -0.33243805 -0.40733224 249 249 249 255
-0.30145195 -0.11264353 -0.12422178 -0.87389165 -0.3265471 -0.36011168 249 249 249 255
0.4187374 -0.14710473 -0.0962998 0.92201936 -0.32391042 -0.21204284 249 249 249 255
0.25830847 -0.18870267 0.049186163 0.7981031 -0.58304024 0.15197194 249 249 249 255
-0.23310165 0.14268224 -0.023285843 -0.8498261 0.52018124 -0.08489397 249 249 249 255
0.043426566 -0.05172398 -0.3437819 0.12395093 -0.14763391 -0.9812443 249 249 249 255
0.2622647 -0.24187 0.043537565 0.72969806 -0.672954 0.121134415 249 249 249 255
-0.38957155 -0.28876227 0.42882508 -0.6018096 -0.44607973 0.6624485 249 249 249 255
-0.23810706 -0.1007852 -0.16200024 -0.7803781 -0.33031607 -0.53094375 249 249 249 255
-0.25721672 -0.105296545 -0.1480874 -0.8167557 -0.33435452 -0.47023085 249 249 249 255
-0.5173421 -0.16098383 0.05175352 -0.95051306 -0.29577577 0.09508678 249 249 249 255
-0.5827086 -0.16549343 0.072848946 -0.95507467 -0.2712481 0.119401366 249 249 249 255
0.39027196 -0.07034844 -0.32291412 0.76313734 -0.13755928 -0.631426 249 249 249 255
-0.062280677 -0.07124407 -0.26946232 -0.21807331 -0.24945836 -0.94351184 249 249 249 255
-0.083418794 -0.07398782 -0.25743198 -0.29734805 -0.26373124 -0.91762197 249 249 249 255
-0.10483381 -0.0771183 -0.24536625 -0.37744707 -0.27765927 -0.8834246 249 249 249 255
-0.529774 -0.24053442 0.30181128 -0.8082668 -0.3669792 0.46046817 249 249 249 255
-0.124423 -0.0817351 -0.23044671 -0.45352072 -0.2979238 -0.8399764 249 249 249 255
-0.14655198 -0.085570835 -0.21669036 -0.53246033 -0.31090048 -0.7872909 249 249 249 255
-0.17146888 -0.09067892 -0.19941768 -0.6163654 -0.32595626 -0.7168306 249 249 249 255
-0.1926131 -0.09359193 -0.18744254 -0.6767985 -0.3288608 -0.6586305 249 249 249 255
-0.21746789 -0.097298585 -0.17346461 -0.73792464 -0.33015925 -0.58861023 249 249 249 255
0.30939707 -0.20741943 -0.06741823 0.8173372 -0.547942 -0.17809936 249 249 249 255
0.074798554 -0.040298432 -0.37622517 0.19392957 -0.10448141 -0.97543585 249 249 249 255
-0.6182812 -0.17642906 0.11486311 -0.9466283 -0.2701243 0.17586279 249 249 249 255
0.6138468 0.14355071 -0.12056808 0.9563943 0.22365698 -0.18784925 249 249 249 255
0.29280955 -0.21628357 -0.03821987 0.799964 -0.590893 -0.10441777 249 249 249 255
-0.21904795 0.14769918 -0.041184925 -0.8192315 0.5523897 -0.15403017 249 249 249 255
-0.6070355 -0.16936892 0.09393613 -0.95268655 -0.26580897 0.14742416 249 249 249 255
-0.5656973 -0.21937373 0.24361792 -0.86521125 -0.3355233 0.37260383 249 249 249 255
-0.45176113 -0.27006856 0.39115494 -0.6889074 -0.41183764 0.59648675 249 249 249 255
0.15320303 -0.20558569 0.120235994 0.54100114 -0.7259785 0.42458576 249 249 249 255
0.28639942 -0.20836969 -0.060736053 0.79699594 -0.5798539 -0.16901708 249 249 249 255
-0.5895586 -0.20429015 0.20510976 -0.8976252 -0.3110395 0.31228736 249 249 249 255
-0.60337436 -0.18967451 0.16176365 -0.9242252 -0.29053602 0.24778321 249 249 249 255
0.4405033 0.14332727 -0.100351885 0.92937243 0.30239147 -0.2117221 249 249 249 255
0.44379938 0.15893513 -0.14862159 0.8978815 0.3215528 -0.30068675 249 249 249 255
-0.35197133 -0.27431387 0.3950342 -0.59058255 -0.460279 0.66283894 249 249 249 255
0.45375276 0.15148842 -0.12811923 0.91624254 0.3058938 -0.25870538 249 249 249 255
-0.25262842 0.13640982 -0.0038901418 -0.87983835 0.47507957 -0.013548344 249 249 249 255
-0.5276057 -0.17498265 0.112845406 -0.93018615 -0.30850017 0.19895017 249 249 249 255
0.27087843 -0.21359466 -0.044407733 0.7788178 -0.6141179 -0.1276792 249 249 249 255
0.25266188 -0.2190907 -0.02539412 0.753347 -0.65324986 -0.07571617 249 249 249 255
-0.5547925 -0.22748038 0.263305 -0.8471629 -0.34736046 0.40206432 249 249 249 255
-0.54513085 -0.23430383 0.28308076 -0.8291976 -0.35639924 0.43059364 249 249 249 255
0.2968229 0.17734718 -0.19048272 0.75189734 0.4492473 -0.48252165 249 249 249 255
-0.37815845 -0.13137585 -0.032682568 -0.9414865 -0.32708144 -0.081368536 249 249 249 255
0.31049833 0.15049803 -0.111240305 0.856459 0.41512427 -0.3068383 249 249 249 255
-0.40559867 -0.12130749 -0.07823657 -0.94211525 -0.28177032 -0.18172611 249 249 249 255
0.30949736 0.17085412 -0.17244318 0.78684425 0.4343675 -0.43840736 249 249 249 255
0.12031471 -0.25871575 0.111392 0.3928045 -0.8446574 0.36367357 249 249 249 255
0.33065587 0.17523918 -0.18840817 0.7892026 0.41825736 -0.44968873 249 249 249 255
0.3321044 0.16797778 -0.16636102 0.8146622 0.41205466 -0.40808865 249 249 249 255
0.35196507 0.16250803 -0.15200518 0.8452451 0.39026356 -0.36504096 249 249 249 255
0.39837855 -0.17133401 -0.10360578 0.8934972 -0.38427395 -0.23237064 249 249 249 255
-0.19527632 -0.2813896 0.29931995 -0.42930275 -0.6186174 0.6580362 249 249 249 255
0.32529154 0.18529809 -0.21793546 0.7509366 0.4277613 -0.50310475 249 249 249 255
0.34457555 0.19230048 -0.24157423 0.74474335 0.41562596 -0.522123 249 249 249 255
0.3483678 0.18455929 -0.219262 0.7722498 0.40912476 -0.4860525 249 249 249 255
-0.1407629 -0.26141468 0.29073417 -0.33874232 -0.62908775 0.6996444 249 249 249 255
0.37426972 0.15993151 -0.1463818 0.8653004 0.36975688 -0.3384304 249 249 249 255
-0.50539786 -0.14751478 -0.020323798 -0.95923084 -0.2799789 -0.03857398 249 249 249 255
0.19085705 -0.23015241 0.016586453 0.6373538 -0.7685779 0.055389315 249 249 249 255
-0.4126106 -0.28656796 0.42808434 -0.62514967 -0.43418148 0.64859414 249 249 249 255
-0.1210556 0.19993816 0.020997692 -0.5158516 0.85199237 0.08947702 249 249 249 255
0.10665615 -0.21251307 0.13570419 0.38957536 -0.77623147 0.49567708 249 249 249 255
-0.09603013 0.04626508 0.25110593 -0.35202467 0.16959727 0.9204973 249 249 249 255
0.33239567 -0.17654648 0.004161328 0.88310426 -0.4690463 0.011055768 249 249 249 255
-0.037704445 0.028010156 0.3006771 -0.123895794 0.09204067 0.9880173 249 249 249 255
0.06689975 -0.04917433 -0.3561162 0.18295261 -0.13447842 -0.9738808 249 249 249 255
0.024537012 -0.05501905 -0.32853055 0.07346225 -0.16472365 -0.98360026 249 249 249 255
0.008369125 -0.06097982 -0.31228676 0.026293635 -0.1915828 -0.98112416 249 249 249 255
-0.018504113 -0.06511071 -0.2957182 -0.060995996 -0.21462744 -0.9747895 249 249 249 255
-0.041155197 -0.06884162 -0.2816044 -0.14055562 -0.23511192 -0.9617518 249 249 249 255
-0.03208351 -0.2420236 0.2505821 -0.09170604 -0.6917893 0.71625245 249 249 249 255
0.33015212 0.16014013 -0.1435495 0.83790696 0.4064265 -0.3643204 249 249 249 255
0.3676033 0.18930684 -0.23729041 0.7710856 0.39709055 -0.49774107 249 249 249 255
0.3524331 0.17709488 -0.19702089 0.7993573 0.40167087 -0.4468652 249 249 249 255
0.35372713 0.16989098 -0.17523336 0.823083 0.39531717 -0.40774822 249 249 249 255
-0.59556365 -0.195242 0.18423913 -0.9116676 -0.29886955 0.28202668 249 249 249 255
0.3706632 0.18173221 -0.21372066 0.79736614 0.39094016 -0.45975327 249 249 249 255
0.14268707 -0.27236927 0.14944172 0.41736808 -0.7966963 0.4371259 249 249 249 255
0.37526083 0.17443718 -0.1917471 0.82278216 0.38246417 -0.42041716 249 249 249 255
0.24766809 -0.056427587 -0.4342631 0.49228555 -0.11216014 -0.8631773 249 249 249 255
0.37607166 0.1670291 -0.16898504 0.84540474 0.3754795 -0.37987638 249 249 249 255
-0.42897916 -0.16155967 -0.0010086447 -0.9358293 -0.3524467 -0.0022004247 249 249 249 255
0.39496368 0.16215849 -0.15682161 0.8683463 0.3565131 -0.34477967 249 249 249 255
0.3946222 0.17741133 -0.20372939 0.8251666 0.37097234 -0.4260041 249 249 249 255
0.38932082 0.18535683 -0.22804004 0.7981471 0.38000023 -0.46750516 249 249 249 255
-0.3755488 -0.28012916 0.41198593 -0.60194486 -0.44900244 0.6603478 249 249 249 255
0.3993051 0.16969582 -0.18045709 0.8497661 0.36113182 -0.38403302 249 249 249 255
0.5208616 -0.09805534 -0.22583143 0.904089 -0.1702002 -0.39198837 249 249 249 255
0.5197616 -0.14341106 -0.084374994 0.9523885 -0.26278016 -0.154605 249 249 249 255
-0.110906 0.20602919 0.0007801801 -0.4739884 0.88052464 0.0033343434 249 249 249 255
0.12363546 -0.2754393 0.16194919 0.36086586 -0.8039495 0.4726956 249 249 249 255
-0.24516171 0.11935794 0.04182355 -0.8887117 0.43267286 0.15161046 249 249 249 255
0.26268917 0.17698416 -0.19048354 0.7107161 0.47883788 -0.51536095 249 249 249 255
0.26942205 0.16711985 -0.16036054 0.75831044 0.47037256 -0.45134795 249 249 249 255
0.02341456 -0.039734527 -0.34600943 0.06707701 -0.11382981 -0.99123335 249 249 249 255
0.36708194 0.19606222 -0.2597092 0.7483083 0.39967912 -0.5294255 249 249 249 255
0.12219324 -0.26800525 0.13995865 0.37470177 -0.82182986 0.4291789 249 249 249 255
0.41608918 0.17365171 -0.19613169 0.8462539 0.3531778 -0.39889818 249 249 249 255
0.4326114 0.16746771 -0.18034846 0.869189 0.33647084 -0.36235037 249 249 249 255
0.15975875 0.08435492 0.10475458 0.7649991 0.4039307 0.5016136 249 249 249 255
0.40606225 0.1306546 -0.06488486 0.9411113 0.30281204 -0.15038058 249 249 249 255
0.4168151 0.16328277 -0.1642368 0.874132 0.34243172 -0.3444324 249 249 249 255
-0.4490674 -0.32068357 0.36507088 -0.6787119 -0.48467508 0.55176115 249 249 249 255
-0.08029439 0.039477296 0.2666052 -0.28552288 0.14037932 0.94803494 249 249 249 255
-0.45366436 -0.313375 0.3431021 -0.6985784 -0.48255292 0.5283283 249 249 249 255
0.049710937 0.14742336 -0.0792332 0.28472462 0.84438294 -0.45381647 249 249 249 255
0.36561638 0.20393574 -0.2860274 0.72109777 0.4022184 -0.56412613 249 249 249 255
0.3886243 0.1973067 -0.26764193 0.75983363 0.38577178 -0.5232904 249 249 249 255
-0.47223407 -0.3084069 0.3296505 -0.7228539 -0.47208196 0.5045997 249 249 249 255
-0.469697 -0.30125326 0.30773914 -0.7370826 -0.47274852 0.48292667 249 249 249 255
0.22161645 -0.0003860928 -0.48471564 0.41580957 -0.00072440505 -0.9094514 249 249 249 255
0.3709431 0.12403921 -0.042618915 0.94280225 0.31526253 -0.10832173 249 249 249 255
0.16192296 -0.015594937 -0.43629906 0.347744 -0.033491515 -0.9369912 249 249 249 255
-0.059866324 -0.055810068 -0.28690672 -0.20065635 -0.18706086 -0.9616368 249 249 249 255
-0.17893195 0.073563695 0.17157932 -0.69195783 0.28448233 0.6635241 249 249 249 255
-0.48991677 -0.29673827 0.29626748 -0.7597239 -0.4601581 0.45942807 249 249 249 255
-0.31248978 -0.2777956 0.41863215 -0.5281489 -0.46951133 0.70754355 249 249 249 255
-0.43787292 -0.2773283 0.4321565 -0.6488588 -0.41095695 0.640388 249 249 249 255
0.34205252 0.21205619 -0.31066796 0.6727866 0.41709557 -0.611056 249 249 249 255
0.2866577 0.1568585 -0.13557644 0.8102778 0.44338247 -0.38322574 249 249 249 255
-0.46104628 -0.1225339 -0.03747508 -0.96348125 -0.25606784 -0.078314364 249 249 249 255
0.41046667 0.1937132 -0.26059136 0.7842771 0.3701271 -0.49791098 249 249 249 255
-0.6180164 -0.18814434 0.17953737 -0.9217184 -0.28060114 0.2677646 249 249 249 255
-0.63419676 -0.172387 0.13354786 -0.94565916 -0.25704858 0.199135 249 249 249 255
0.44855773 0.17702106 -0.2149062 0.8496307 0.33530253 -0.40706223 249 249 249 255
0.54492277 -0.09541129 -0.23332423 0.9075942 -0.15891197 -0.38861242 249 249 249 255
0.48875734 -0.12061866 -0.14668053 0.9321121 -0.2300326 -0.2797354 249 249 249 255
0.45275843 0.16233674 -0.16979615 0.8876351 0.31826198 -0.33288613 249 249 249 255
-0.22356474 0.096692674 0.10233025 -0.846192 0.36598152 0.38731977 249 249 249 255
0.4436429 -0.067725025 -0.30538225 0.81727827 -0.12476294 -0.5625747 249 249 249 255
0.071420476 0.14990497 -0.092203304 0.37603354 0.7892597 -0.4854565 249 249 249 255
0.25479928 0.21037456 -0.29697442 0.57352626 0.473531 -0.668458 249 249 249 255
0.27860796 0.2130117 -0.30806103 0.5968523 0.45632765 -0.65994865 249 249 249 255
0.31921136 0.21434368 -0.31606266 0.64133495 0.43064284 -0.6350088 249 249 249 255
0.36595848 0.21105438 -0.31184697 0.696946 0.40194052 -0.5938939 249 249 249 255
0.3846443 0.20636022 -0.29874608 0.72718865 0.39013404 -0.5647939 249 249 249 255
0.4068343 0.20124593 -0.2864465 0.7580044 0.37495697 -0.5337007 249 249 249 255
0.4360238 0.18641032 -0.24288407 0.8183882 0.34988007 -0.4558776 249 249 249 255
-0.11663915 -0.25147828 0.31921533 -0.27588496 -0.5948183 0.75503564 249 249 249 255
0.45730877 0.16977283 -0.1943447 0.87090784 0.32331878 -0.37011397 249 249 249 255
0.3270075 0.1424238 -0.09723318 0.8845384 0.3852491 -0.26301077 249 249 249 255
-0.45299137 -0.11559438 -0.05781448 -0.96162474 -0.24538754 -0.12273049 249 249 249 255
-0.5386208 -0.13165182 0.00026483834 -0.97140354 -0.23743431 0.00047764182 249 249 249 255
-0.27292162 -0.29066223 0.42302984 -0.46949154 -0.5000097 0.72771424 249 249 249 255
-0.61057055 -0.19497214 0.20292078 -0.90818155 -0.29000765 0.30183068 249 249 249 255
0.4747646 -0.12759748 -0.12278792 0.9369472 -0.25181347 -0.24232176 249 249 249 255
0.43213874 0.194218 -0.2684875 0.7935497 0.35664853 -0.49303198 249 249 249 255
0.41127878 0.18372881 -0.23535863 0.80923355 0.36150557 -0.4630925 249 249 249 255
0.42490673 0.17749994 -0.21781251 0.8341223 0.3484451 -0.4275815 249 249 249 255
-0.4777987 -0.31742424 0.35764113 -0.7068175 -0.46957234 0.52906597 249 249 249 255
0.13750225 -0.17652017 0.0628676 0.5916137 -0.75949126 0.27049258 249 249 249 255
0.45759016 0.18245783 -0.23578924 0.83785206 0.33408216 -0.43173242 249 249 249 255
0.42230898 -0.08150959 -0.25886962 0.84125596 -0.1623703 -0.5156784 249 249 249 255
0.33909714 0.13519543 -0.07909135 0.9078323 0.36194593 -0.21174377 249 249 249 255
-0.011199705 -0.23810816 0.23274855 -0.033617035 -0.714705 0.69861764 249 249 249 255
0.47589278 0.16150951 -0.17418644 0.89473116 0.30365574 -0.32748973 249 249 249 255
0.09662673 -0.21112417 0.17295185 0.33374673 -0.7292186 0.5973722 249 249 249 255
-0.2071172 0.08405789 0.13612743 -0.7913891 0.32118294 0.52013916 249 249 249 255
-0.19482422 0.07740297 0.15526214 -0.7468201 0.29670903 0.59516674 249 249 249 255
-0.46294245 -0.26846495 0.4113233 -0.6858775 -0.39774728 0.60940063 249 249 249 255
-0.49377155 -0.31197777 0.34201205 -0.72952443 -0.46093273 0.5053069 249 249 249 255
0.2142803 0.19134393 -0.23938999 0.5730237 0.5116878 -0.6401714 249 249 249 255
-0.46476513 -0.1292237 -0.015799254 -0.96293616 -0.2677356 -0.032734156 249 249 249 255
-0.5404296 -0.139259 0.025316581 -0.96737206 -0.24927442 0.045316786 249 249 249 255
0.22987977 0.18578452 -0.22319618 0.6206687 0.50161284 -0.6026233 249 249 249 255
0.24803895 0.18107033 -0.20977859 0.6669332 0.48686638 -0.5640578 249 249 249 255
0.38539654 0.21321438 -0.3245352 0.7044405 0.38972032 -0.59319615 249 249 249 255
-0.6014632 -0.2024232 0.22469078 -0.89341843 -0.3006812 0.33375758 249 249 249 255
0.4038118 0.20831111 -0.31134105 0.73312473 0.37819108 -0.56524307 249 249 249 255
0.56694 -0.09712733 -0.2260996 0.91731656 -0.15715332 -0.36583218 249 249 249 255
-0.0464247 0.10055124 0.21242432 -0.19378999 0.4197297 0.88672 249 249 249 255
0.5078769 -0.12502083 -0.13436794 0.94047415 -0.2315106 -0.24881932 249 249 249 255
0.46189606 0.14047502 -0.10962394 0.93298316 0.2837453 -0.22142926 249 249 249 255
0.42873386 0.12864682 -0.06977774 0.94638 0.28397292 -0.1540263 249 249 249 255
0.3913737 -0.14880449 -0.04861054 0.9284818 -0.35301876 -0.115321994 249 249 249 255
0.4767605 0.14611447 -0.12952477 0.9253967 0.28360963 -0.2514088 249 249 249 255
0.47785962 0.15403785 -0.15253143 0.9106742 0.2935555 -0.29068464 249 249 249 255
0.48034835 0.168031 -0.19599919 0.88084006 0.30812734 -0.35941407 249 249 249 255
-0.16099831 0.061516754 0.19859885 -0.61226153 0.23394248 0.75525284 249 249 249 255
0.32329524 -0.012686534 -0.45632896 0.57794267 -0.022679232 -0.8157621 249 249 249 255
-0.13918844 0.05284991 0.22153497 -0.5214685 0.19800186 0.8299793 249 249 249 255
0.14596283 -0.02400504 -0.40189943 0.34082952 -0.05605281 -0.93845254 249 249 249 255
0.29058278 0.21720476 -0.3278154 0.59429073 0.44422042 -0.6704378 249 249 249 255
0.35075283 0.21806651 -0.3363915 0.65847766 0.40938216 -0.6315167 249 249 249 255
-0.08018497 -0.057246845 -0.27496445 -0.27452832 -0.19599536 -0.9413926 249 249 249 255
-0.1021161 -0.06068165 -0.26200908 -0.35496646 -0.2109359 -0.91077155 249 249 249 255
-0.091260776 -0.2455983 0.302336 -0.22811334 -0.613892 0.7557123 249 249 249 255
0.3934482 0.121171385 -0.046211615 0.9497389 0.2924939 -0.111549616 249 249 249 255
-0.21028325 -0.25790685 0.35426387 -0.4326432 -0.5306256 0.7288734 249 249 249 255
0.44959474 0.13100564 -0.08177249 0.9457617 0.2755818 -0.1720156 249 249 249 255
-0.49290243 -0.30453193 0.31972927 -0.7448416 -0.46018857 0.4831537 249 249 249 255
-0.49515632 -0.25633234 0.37991324 -0.733891 -0.37992048 0.56308466 249 249 249 255
-0.12371444 -0.06428773 -0.24913612 -0.4333342 -0.22518045 -0.87264836 249 249 249 255
0.21302527 0.20039353 -0.26879823 0.53628004 0.5044803 -0.6766855 249 249 249 255
0.23940247 0.19949238 -0.26996216 0.5806527 0.4838539 -0.65477306 249 249 249 255
0.31253177 0.2193232 -0.33794034 0.61294585 0.43014276 -0.6627779 249 249 249 255
-0.51342356 -0.30769974 0.33085802 -0.75070435 -0.44990447 0.4837654 249 249 249 255
0.3714716 0.21959233 -0.3463423 0.67134833 0.39686197 -0.62593293 249 249 249 255
-0.51323384 -0.30015823 0.3086511 -0.766132 -0.44806254 0.4607403 249 249 249 255
0.37306857 0.11378205 -0.021660104 0.95503104 0.2912746 -0.055448472 249 249 249 255
0.42121127 0.120113164 -0.04828185 0.9558744 0.27257842 -0.10956821 249 249 249 255
0.49922514 0.15472978 -0.16092296 0.9128825 0.28293878 -0.29426354 249 249 249 255
-0.5076942 -0.29167762 0.2823612 -0.78101516 -0.44870454 0.4343725 249 249 249 255
0.12332645 -0.04391393 -0.33749506 0.34068498 -0.121310696 -0.93231833 249 249 249 255
-0.056523032 -0.08241582 -0.19866042 -0.25417235 -0.3706069 -0.89333475 249 249 249 255
0.2147032 0.20700176 -0.29112133 0.51515746 0.4966788 -0.69851476 249 249 249 255
0.25912854 0.21482046 -0.3201841 0.55779696 0.46241996 -0.68922436 249 249 249 255
-0.5291295 -0.28503937 0.2648859 -0.8056138 -0.4339801 0.40329587 249 249 249 255
0.33266404 0.22179888 -0.35057017 0.6256007 0.41711015 -0.6592746 249 249 249 255
0.4529045 0.18734078 -0.2585512 0.817315 0.33807668 -0.46658355 249 249 249 255
0.23963396 -0.19140692 0.06308815 0.76532185 -0.6112987 0.20148538 249 249 249 255
-0.32190582 -0.2810975 0.439748 -0.52495825 -0.45840883 0.7171333 249 249 249 255
-0.53084636 -0.29379946 0.29097682 -0.7889029 -0.4366221 0.43242735 249 249 249 255
0.34460366 0.12484351 -0.056122273 0.9293698 0.33669347 -0.1513575 249 249 249 255
0.4716403 0.13162632 -0.09023233 0.94724464 0.26435897 -0.181223 249 249 249 255
0.49947286 0.14291215 -0.12774223 0.9336102 0.26713014 -0.23877466 249 249 249 255
-0.44078413 -0.12682162 -0.019581333 -0.96013904 -0.27624953 -0.042653054 249 249 249 255
0.48489535 0.13777956 -0.10971376 0.9399176 0.267071 -0.21266842 249 249 249 255
0.37144843 -0.16731556 -0.025227115 0.910028 -0.4099138 -0.06180501 249 249 249 255
-0.51607466 -0.12758029 -0.00954479 -0.97061926 -0.23994961 -0.017951578 249 249 249 255
-0.5493461 -0.28844798 0.27649254 -0.80870926 -0.42463312 0.4070332 249 249 249 255
-0.11887355 0.042459942 0.24430694 -0.4322827 0.15440527 0.8884203 249 249 249 255
0.46214056 -0.1484144 -0.054123 0.94624275 -0.3038817 -0.11081803 249 249 249 255
0.38208172 -0.16159196 -0.0035378486 0.9209838 -0.38950723 -0.008527786 249 249 249 255
0.42628992 0.2066775 -0.31710824 0.74776626 0.3625384 -0.55624783 249 249 249 255
0.42867452 0.19930416 -0.2934277 0.7704395 0.3582014 -0.52736586 249 249 249 255
0.4116366 -0.17094725 -0.019594833 0.9226376 -0.38315922 -0.043919623 249 249 249 255
0.4514685 0.19479486 -0.28241178 0.79619575 0.34353417 -0.49805266 249 249 249 255
0.47148374 0.19034791 -0.2719144 0.8176974 0.33012173 -0.47158295 249 249 249 255
0.47551647 0.18336606 -0.25023356 0.8375249 0.32296187 -0.44073522 249 249 249 255
0.47872263 0.17551097 -0.22647719 0.85805345 0.3145826 -0.4059335 249 249 249 255
0.4788574 -0.15756032 -0.067063406 0.9416058 -0.30982026 -0.13187075 249 249 249 255
0.24852088 -0.011749493 -0.44493106 0.48751673 -0.02304865 -0.87280935 249 249 249 255
0.50111383 -0.15538208 -0.07788408 0.9447839 -0.29295242 -0.14684013 249 249 249 255
0.39437342 0.21661267 -0.34609672 0.694739 0.38159084 -0.60969347 249 249 249 255
-0.4087234 -0.28111005 0.45150906 -0.6093308 -0.41908294 0.67311627 249 249 249 255
0.41502553 0.21281528 -0.33613828 0.7218921 0.37016922 -0.58467627 249 249 249 255
0.4476307 0.20252125 -0.30732363 0.77242494 0.34946766 -0.53031313 249 249 249 255
0.49636894 0.16977336 -0.21235272 0.8770553 0.29997972 -0.375215 249 249 249 255
0.49389327 0.18650284 -0.26455092 0.83638537 0.315834 -0.44800478 249 249 249 255
-0.5800936 -0.13816911 0.031339377 -0.97144616 -0.2313831 0.05248204 249 249 249 255
0.49853262 0.17897402 -0.2419357 0.856111 0.30734533 -0.4154669 249 249 249 255
-0.55472857 -0.28104305 0.25503972 -0.82533336 -0.41814005 0.37945187 249 249 249 255
0.44876656 0.12176522 -0.060516044 0.95703363 0.2596749 -0.12905577 249 249 249 255
-0.37193087 -0.118046984 -0.095538154 -0.9257994 -0.29383916 -0.2378108 249 249 249 255
0.49990365 0.15987 -0.18351986 0.899099 0.28753337 -0.3300687 249 249 249 255
0.5044023 -0.097685486 -0.20970379 0.9089587 -0.17603424 -0.3778969 249 249 249 255
0.07938433 -0.14308928 -0.025323182 0.47942355 -0.8641553 -0.15293363 249 249 249 255
